lon	lat	East
35.64591	32.880107	46.22
35.646123	32.880102	45.81
35.646337	32.880098	45.58
35.64655	32.880093	45.42
35.646764	32.880089	45.32
35.646977	32.880084	45.26
35.647191	32.88008	45.25
35.647405	32.880075	45.31
35.647618	32.880071	45.45
35.647832	32.880066	45.7
35.600421	32.881242	139.41
35.600635	32.881237	133.25
35.600849	32.881233	127.04
35.601062	32.881229	120.77
35.601276	32.881224	114.43
35.601489	32.88122	108.0
35.601703	32.881215	101.44
35.601917	32.881211	94.73
35.60213	32.881206	87.82
35.602344	32.881202	80.7
35.602557	32.881197	73.35
35.602771	32.881193	65.77
35.602984	32.881189	58.02
35.603198	32.881184	50.19
35.603412	32.88118	42.43
35.603625	32.881175	34.95
35.603839	32.881171	27.98
35.604052	32.881166	21.71
35.604266	32.881162	16.33
35.60448	32.881157	11.9
35.604693	32.881153	8.42
35.604907	32.881149	5.78
35.60512	32.881144	3.81
35.605334	32.88114	2.27
35.605548	32.881135	0.96
35.605761	32.881131	-0.32
35.605975	32.881126	-1.68
35.606188	32.881122	-3.07
35.606402	32.881117	-4.31
35.606615	32.881113	-5.07
35.606829	32.881108	-4.91
35.607043	32.881104	-3.41
35.607256	32.8811	-0.31
35.60747	32.881095	4.23
35.607683	32.881091	8.82
35.607897	32.881086	11.33
35.608111	32.881082	6.57
35.608324	32.881077	-6.45
35.608538	32.881073	-31.68
35.608751	32.881068	-62.19
35.608965	32.881064	-97.17
35.609179	32.881059	-127.14
35.609392	32.881055	-149.82
35.609606	32.881051	-166.31
35.609819	32.881046	-177.92
35.610033	32.881042	-184.68
35.610246	32.881037	-186.55
35.61046	32.881033	-184.02
35.610674	32.881028	-178.48
35.610887	32.881024	-172.15
35.611101	32.881019	-166.81
35.611314	32.881015	-163.62
35.611528	32.88101	-163.26
35.611742	32.881006	-165.8
35.611955	32.881001	-170.94
35.612169	32.880997	-178.15
35.612382	32.880993	-186.69
35.612596	32.880988	-195.77
35.61281	32.880984	-204.65
35.613023	32.880979	-212.68
35.613237	32.880975	-219.31
35.61345	32.88097	-224.15
35.613664	32.880966	-227.11
35.613877	32.880961	-228.55
35.614091	32.880957	-228.99
35.614305	32.880952	-228.81
35.614518	32.880948	-228.22
35.614732	32.880943	-227.55
35.614945	32.880939	-227.76
35.615159	32.880934	-231.3
35.615373	32.88093	-242.46
35.615586	32.880926	-261.04
35.6158	32.880921	-238.53
35.616013	32.880917	-227.59
35.616227	32.880912	-224.66
35.61644	32.880908	-224.53
35.616654	32.880903	-224.45
35.616868	32.880899	-222.65
35.617081	32.880894	-218.64
35.617295	32.88089	-212.46
35.617508	32.880885	-202.9
35.617722	32.880881	-198.89
35.617936	32.880876	-195.03
35.618149	32.880872	-191.15
35.618363	32.880867	-187.17
35.618576	32.880863	-183.26
35.61879	32.880858	-179.56
35.619004	32.880854	-176.06
35.619217	32.880849	-172.68
35.619431	32.880845	-169.36
35.619644	32.880841	-166.02
35.619858	32.880836	-162.64
35.620071	32.880832	-159.24
35.620285	32.880827	-155.87
35.620499	32.880823	-152.66
35.620712	32.880818	-149.86
35.620926	32.880814	-147.7
35.621139	32.880809	-146.26
35.621353	32.880805	-145.49
35.621567	32.8808	-145.36
35.62178	32.880796	-145.96
35.621994	32.880791	-147.38
35.622207	32.880787	-149.4
35.622421	32.880782	-151.04
35.622634	32.880778	-150.56
35.622848	32.880773	-146.53
35.623062	32.880769	-139.8
35.623275	32.880764	-131.94
35.623489	32.88076	-124.13
35.623702	32.880755	-116.92
35.623916	32.880751	-110.39
35.62413	32.880746	-104.36
35.624343	32.880742	-98.57
35.624557	32.880737	-92.73
35.62477	32.880733	-86.63
35.624984	32.880728	-80.15
35.625197	32.880724	-73.26
35.625411	32.88072	-66.0
35.625625	32.880715	-58.47
35.625838	32.880711	-50.74
35.626052	32.880706	-42.86
35.626265	32.880702	-34.75
35.626479	32.880697	-26.96
35.626693	32.880693	-20.03
35.626906	32.880688	-14.28
35.62712	32.880684	-9.81
35.627333	32.880679	-6.59
35.627547	32.880675	-4.48
35.62776	32.88067	-3.32
35.627974	32.880666	-2.95
35.628188	32.880661	-3.27
35.628401	32.880657	-4.19
35.628615	32.880652	-5.62
35.628828	32.880648	-7.48
35.629042	32.880643	-9.66
35.629256	32.880639	-12.04
35.629469	32.880634	-14.5
35.629683	32.88063	-16.94
35.629896	32.880625	-19.27
35.63011	32.880621	-21.33
35.630323	32.880616	-22.52
35.630537	32.880612	-23.31
35.630751	32.880607	-23.72
35.630964	32.880603	-23.61
35.631178	32.880598	-22.89
35.631391	32.880594	-21.48
35.631605	32.880589	-19.38
35.631819	32.880585	-16.57
35.632032	32.88058	-13.02
35.632246	32.880576	-8.72
35.632459	32.880571	-3.8
35.632673	32.880567	1.37
35.632886	32.880562	5.93
35.6331	32.880558	9.38
35.633314	32.880553	11.97
35.633527	32.880549	14.34
35.633741	32.880544	17.22
35.633954	32.88054	21.46
35.634168	32.880535	26.84
35.634382	32.880531	32.48
35.634595	32.880526	37.08
35.634809	32.880522	40.2
35.635022	32.880517	39.43
35.635236	32.880513	34.56
35.635449	32.880508	29.21
35.635663	32.880504	24.89
35.635877	32.880499	23.0
35.63609	32.880495	23.61
35.636304	32.88049	25.85
35.636517	32.880486	29.33
35.636731	32.880481	33.88
35.636945	32.880477	39.38
35.637158	32.880472	45.68
35.637372	32.880468	52.27
35.637585	32.880463	57.82
35.637799	32.880459	60.89
35.638012	32.880454	60.04
35.638226	32.88045	54.34
35.63844	32.880445	46.53
35.638653	32.880441	49.25
35.638867	32.880436	55.04
35.63908	32.880432	59.76
35.639294	32.880427	62.78
35.639508	32.880423	64.93
35.639721	32.880418	67.18
35.639935	32.880414	70.24
35.640148	32.880409	74.49
35.640362	32.880405	79.99
35.640575	32.8804	86.72
35.640789	32.880396	94.64
35.641003	32.880391	103.64
35.641216	32.880387	113.39
35.64143	32.880382	123.29
35.641643	32.880377	132.61
35.641857	32.880373	140.62
35.64207	32.880368	146.85
35.642284	32.880364	151.05
35.642498	32.880359	153.15
35.642711	32.880355	153.1
35.642925	32.88035	150.77
35.643138	32.880346	145.94
35.643352	32.880341	138.36
35.643566	32.880337	128.02
35.643779	32.880332	115.31
35.643993	32.880328	101.05
35.644206	32.880323	86.7
35.64442	32.880319	74.67
35.644633	32.880314	65.71
35.644847	32.88031	59.3
35.645061	32.880305	54.88
35.645274	32.880301	51.96
35.645488	32.880296	50.1
35.645701	32.880292	48.92
35.645915	32.880287	48.16
35.646128	32.880283	47.61
35.646342	32.880278	47.16
35.646556	32.880274	46.75
35.646769	32.880269	46.37
35.646983	32.880265	46.02
35.647196	32.88026	45.73
35.64741	32.880255	45.53
35.647624	32.880251	45.44
35.647837	32.880246	45.48
35.648051	32.880242	45.67
35.648264	32.880237	46.0
35.60064	32.881418	132.92
35.600854	32.881413	126.86
35.601067	32.881409	120.75
35.601281	32.881404	114.57
35.601495	32.8814	108.31
35.601708	32.881395	101.94
35.601922	32.881391	95.41
35.602135	32.881387	88.68
35.602349	32.881382	81.73
35.602563	32.881378	74.53
35.602776	32.881373	67.06
35.60299	32.881369	59.36
35.603203	32.881364	51.51
35.603417	32.88136	43.64
35.603631	32.881355	35.94
35.603844	32.881351	28.6
35.604058	32.881347	21.86
35.604271	32.881342	15.88
35.604485	32.881338	10.78
35.604698	32.881333	6.62
35.604912	32.881329	3.37
35.605126	32.881324	0.93
35.605339	32.88132	-0.8
35.605553	32.881315	-1.99
35.605766	32.881311	-2.74
35.60598	32.881306	-3.14
35.606194	32.881302	-3.15
35.606407	32.881298	-2.66
35.606621	32.881293	-1.42
35.606834	32.881289	0.81
35.607048	32.881284	4.19
35.607262	32.88128	8.59
35.607475	32.881275	13.26
35.607689	32.881271	16.37
35.607902	32.881266	14.97
35.608116	32.881262	4.8
35.608329	32.881257	-16.41
35.608543	32.881253	-44.59
35.608757	32.881249	-26.76
35.60897	32.881244	-40.68
35.609184	32.88124	-73.7
35.609397	32.881235	-104.53
35.609611	32.881231	-129.01
35.609825	32.881226	-147.23
35.610038	32.881222	-159.53
35.610252	32.881217	-166.3
35.610465	32.881213	-168.35
35.610679	32.881208	-167.11
35.610893	32.881204	-164.45
35.611106	32.8812	-162.02
35.61132	32.881195	-161.02
35.611533	32.881191	-162.13
35.611747	32.881186	-165.55
35.61196	32.881182	-171.12
35.612174	32.881177	-178.41
35.612388	32.881173	-186.82
35.612601	32.881168	-195.68
35.612815	32.881164	-204.35
35.613028	32.881159	-212.26
35.613242	32.881155	-218.96
35.613456	32.88115	-224.18
35.613669	32.881146	-227.88
35.613883	32.881141	-230.35
35.614096	32.881137	-231.98
35.61431	32.881133	-233.21
35.614524	32.881128	-234.44
35.614737	32.881124	-236.26
35.614951	32.881119	-239.7
35.615164	32.881115	-246.22
35.615378	32.88111	-256.48
35.615591	32.881106	-265.18
35.615805	32.881101	-253.22
35.616019	32.881097	-241.83
35.616232	32.881092	-235.21
35.616446	32.881088	-231.75
35.616659	32.881083	-229.26
35.616873	32.881079	-226.01
35.617087	32.881074	-221.2
35.6173	32.88107	-214.76
35.617514	32.881065	-207.53
35.617727	32.881061	-205.03
35.617941	32.881057	-200.83
35.618154	32.881052	-196.81
35.618368	32.881048	-192.61
35.618582	32.881043	-188.51
35.618795	32.881039	-184.68
35.619009	32.881034	-181.07
35.619222	32.88103	-177.55
35.619436	32.881025	-174.08
35.61965	32.881021	-170.51
35.619863	32.881016	-166.87
35.620077	32.881012	-163.14
35.62029	32.881007	-159.35
35.620504	32.881003	-155.59
35.620718	32.880998	-152.24
35.620931	32.880994	-149.69
35.621145	32.880989	-147.98
35.621358	32.880985	-146.91
35.621572	32.88098	-146.38
35.621785	32.880976	-146.61
35.621999	32.880971	-148.1
35.622213	32.880967	-151.09
35.622426	32.880963	-154.54
35.62264	32.880958	-155.48
35.622853	32.880954	-150.47
35.623067	32.880949	-141.83
35.623281	32.880945	-132.44
35.623494	32.88094	-123.9
35.623708	32.880936	-116.62
35.623921	32.880931	-110.41
35.624135	32.880927	-104.92
35.624348	32.880922	-99.73
35.624562	32.880918	-94.44
35.624776	32.880913	-88.77
35.624989	32.880909	-82.59
35.625203	32.880904	-75.88
35.625416	32.8809	-68.74
35.62563	32.880895	-61.25
35.625844	32.880891	-53.45
35.626057	32.880886	-45.31
35.626271	32.880882	-36.74
35.626484	32.880877	-28.49
35.626698	32.880873	-21.16
35.626911	32.880868	-15.14
35.627125	32.880864	-10.57
35.627339	32.880859	-7.38
35.627552	32.880855	-5.37
35.627766	32.88085	-4.31
35.627979	32.880846	-3.98
35.628193	32.880841	-4.28
35.628407	32.880837	-5.12
35.62862	32.880832	-6.45
35.628834	32.880828	-8.23
35.629047	32.880823	-10.38
35.629261	32.880819	-12.82
35.629474	32.880814	-15.44
35.629688	32.88081	-18.12
35.629902	32.880805	-20.68
35.630115	32.880801	-22.79
35.630329	32.880796	-23.79
35.630542	32.880792	-24.12
35.630756	32.880787	-23.9
35.63097	32.880783	-23.1
35.631183	32.880778	-21.7
35.631397	32.880774	-19.69
35.63161	32.880769	-17.07
35.631824	32.880765	-13.84
35.632037	32.88076	-10.01
35.632251	32.880756	-5.66
35.632465	32.880751	-0.92
35.632678	32.880747	3.87
35.632892	32.880742	8.24
35.633105	32.880738	11.94
35.633319	32.880733	15.11
35.633533	32.880729	18.2
35.633746	32.880724	21.79
35.63396	32.88072	26.35
35.634173	32.880715	31.77
35.634387	32.880711	37.47
35.6346	32.880706	42.53
35.634814	32.880702	45.87
35.635028	32.880697	43.67
35.635241	32.880693	38.76
35.635455	32.880688	33.62
35.635668	32.880684	29.66
35.635882	32.880679	27.87
35.636096	32.880675	28.39
35.636309	32.88067	30.97
35.636523	32.880666	34.96
35.636736	32.880661	40.17
35.63695	32.880657	46.45
35.637163	32.880652	53.83
35.637377	32.880648	62.05
35.637591	32.880643	69.38
35.637804	32.880639	74.2
35.638018	32.880634	74.5
35.638231	32.88063	67.19
35.638445	32.880625	50.98
35.638659	32.880621	57.54
35.638872	32.880616	64.87
35.639086	32.880612	68.2
35.639299	32.880607	68.46
35.639513	32.880603	67.74
35.639726	32.880598	67.54
35.63994	32.880594	68.76
35.640154	32.880589	71.75
35.640367	32.880585	76.41
35.640581	32.88058	82.54
35.640794	32.880576	90.19
35.641008	32.880571	99.3
35.641222	32.880567	109.44
35.641435	32.880562	119.75
35.641649	32.880558	129.12
35.641862	32.880553	136.52
35.642076	32.880549	141.36
35.642289	32.880544	143.52
35.642503	32.88054	143.21
35.642717	32.880535	140.84
35.64293	32.880531	136.77
35.643144	32.880526	131.21
35.643357	32.880522	124.25
35.643571	32.880517	115.89
35.643784	32.880513	106.16
35.643998	32.880508	95.28
35.644212	32.880504	84.06
35.644425	32.880499	74.5
35.644639	32.880494	66.91
35.644852	32.88049	61.29
35.645066	32.880485	57.38
35.64528	32.880481	54.76
35.645493	32.880476	53.05
35.645707	32.880472	51.88
35.64592	32.880467	51.0
35.646134	32.880463	50.22
35.646347	32.880458	49.46
35.646561	32.880454	48.69
35.646775	32.880449	47.94
35.646988	32.880445	47.22
35.647202	32.88044	46.58
35.647415	32.880436	46.06
35.647629	32.880431	45.69
35.647842	32.880427	45.49
35.648056	32.880422	45.47
35.64827	32.880418	45.63
35.648483	32.880413	45.97
35.600859	32.881593	126.75
35.601073	32.881589	120.81
35.601286	32.881585	114.83
35.6015	32.88158	108.78
35.601713	32.881576	102.62
35.601927	32.881571	96.3
35.602141	32.881567	89.8
35.602354	32.881562	83.05
35.602568	32.881558	76.01
35.602781	32.881553	68.66
35.602995	32.881549	61.0
35.603209	32.881545	53.09
35.603422	32.88154	45.05
35.603636	32.881536	37.04
35.603849	32.881531	29.28
35.604063	32.881527	21.99
35.604277	32.881522	15.4
35.60449	32.881518	9.64
35.604704	32.881513	4.83
35.604917	32.881509	1.01
35.605131	32.881505	-1.85
35.605345	32.8815	-3.8
35.605558	32.881496	-4.92
35.605772	32.881491	-5.33
35.605985	32.881487	-5.12
35.606199	32.881482	-4.3
35.606412	32.881478	-2.85
35.606626	32.881473	-0.69
35.60684	32.881469	2.23
35.607053	32.881464	5.78
35.607267	32.88146	9.48
35.60748	32.881456	12.23
35.607694	32.881451	12.1
35.607908	32.881447	6.55
35.608121	32.881442	-6.67
35.608335	32.881438	-26.37
35.608548	32.881433	-42.17
35.608762	32.881429	-26.34
35.608976	32.881424	-26.02
35.609189	32.88142	-43.41
35.609403	32.881415	-70.23
35.609616	32.881411	-95.9
35.60983	32.881406	-117.48
35.610043	32.881402	-133.88
35.610257	32.881398	-144.92
35.610471	32.881393	-151.2
35.610684	32.881389	-153.99
35.610898	32.881384	-154.93
35.611111	32.88138	-155.51
35.611325	32.881375	-156.88
35.611539	32.881371	-159.75
35.611752	32.881366	-164.37
35.611966	32.881362	-170.68
35.612179	32.881357	-178.35
35.612393	32.881353	-186.91
35.612607	32.881348	-195.79
35.61282	32.881344	-204.46
35.613034	32.88134	-212.42
35.613247	32.881335	-219.33
35.613461	32.881331	-225.01
35.613674	32.881326	-229.47
35.613888	32.881322	-232.96
35.614102	32.881317	-235.85
35.614315	32.881313	-238.56
35.614529	32.881308	-241.54
35.614742	32.881304	-245.31
35.614956	32.881299	-250.43
35.61517	32.881295	-257.21
35.615383	32.88129	-264.6
35.615597	32.881286	-268.43
35.61581	32.881281	-261.91
35.616024	32.881277	-252.78
35.616237	32.881273	-245.15
35.616451	32.881268	-239.44
35.616665	32.881264	-234.66
35.616878	32.881259	-229.65
35.617092	32.881255	-223.73
35.617305	32.88125	-216.83
35.617519	32.881246	-209.99
35.617733	32.881241	-207.5
35.617946	32.881237	-204.35
35.61816	32.881232	-200.76
35.618373	32.881228	-196.85
35.618587	32.881223	-192.88
35.618801	32.881219	-189.07
35.619014	32.881214	-185.44
35.619228	32.88121	-181.79
35.619441	32.881205	-178.2
35.619655	32.881201	-174.46
35.619868	32.881196	-170.61
35.620082	32.881192	-166.64
35.620296	32.881188	-162.54
35.620509	32.881183	-158.2
35.620723	32.881179	-154.22
35.620936	32.881174	-151.36
35.62115	32.88117	-149.45
35.621364	32.881165	-148.05
35.621577	32.881161	-146.76
35.621791	32.881156	-145.94
35.622004	32.881152	-146.71
35.622218	32.881147	-150.3
35.622432	32.881143	-156.28
35.622645	32.881138	-160.17
35.622859	32.881134	-153.31
35.623072	32.881129	-141.64
35.623286	32.881125	-130.79
35.623499	32.88112	-122.11
35.623713	32.881116	-115.37
35.623927	32.881111	-110.0
35.62414	32.881107	-105.42
35.624354	32.881102	-101.07
35.624567	32.881098	-96.47
35.624781	32.881093	-91.25
35.624995	32.881089	-85.28
35.625208	32.881084	-78.61
35.625422	32.88108	-71.41
35.625635	32.881075	-63.8
35.625849	32.881071	-55.76
35.626062	32.881066	-47.18
35.626276	32.881062	-38.04
35.62649	32.881058	-29.25
35.626703	32.881053	-21.52
35.626917	32.881049	-15.31
35.62713	32.881044	-10.78
35.627344	32.88104	-7.79
35.627558	32.881035	-6.02
35.627771	32.881031	-5.12
35.627985	32.881026	-4.86
35.628198	32.881022	-5.09
35.628412	32.881017	-5.8
35.628625	32.881013	-6.98
35.628839	32.881008	-8.61
35.629053	32.881004	-10.67
35.629266	32.880999	-13.1
35.62948	32.880995	-15.8
35.629693	32.88099	-18.6
35.629907	32.880986	-21.21
35.630121	32.880981	-23.24
35.630334	32.880977	-24.19
35.630548	32.880972	-24.24
35.630761	32.880968	-23.52
35.630975	32.880963	-22.12
35.631188	32.880959	-20.1
35.631402	32.880954	-17.51
35.631616	32.88095	-14.4
35.631829	32.880945	-10.81
35.632043	32.880941	-6.77
35.632256	32.880936	-2.37
35.63247	32.880932	2.25
35.632684	32.880927	6.84
35.632897	32.880923	11.16
35.633111	32.880918	15.07
35.633324	32.880914	18.68
35.633538	32.880909	22.32
35.633751	32.880905	26.37
35.633965	32.8809	31.1
35.634179	32.880896	36.44
35.634392	32.880891	41.94
35.634606	32.880887	46.8
35.634819	32.880882	49.64
35.635033	32.880878	47.68
35.635247	32.880873	43.49
35.63546	32.880869	39.05
35.635674	32.880864	35.67
35.635887	32.88086	34.14
35.636101	32.880855	34.7
35.636314	32.880851	37.22
35.636528	32.880846	41.31
35.636742	32.880842	46.73
35.636955	32.880837	53.31
35.637169	32.880833	60.96
35.637382	32.880828	69.36
35.637596	32.880824	77.71
35.63781	32.880819	84.03
35.638023	32.880815	87.36
35.638237	32.88081	84.95
35.63845	32.880806	65.46
35.638664	32.880801	73.53
35.638877	32.880797	78.8
35.639091	32.880792	78.11
35.639305	32.880788	74.23
35.639518	32.880783	70.23
35.639732	32.880779	67.55
35.639945	32.880774	67.03
35.640159	32.88077	68.95
35.640373	32.880765	72.83
35.640586	32.88076	78.24
35.6408	32.880756	85.45
35.641013	32.880751	94.59
35.641227	32.880747	105.23
35.64144	32.880742	116.18
35.641654	32.880738	125.8
35.641868	32.880733	132.65
35.642081	32.880729	135.99
35.642295	32.880724	135.92
35.642508	32.88072	133.07
35.642722	32.880715	128.35
35.642935	32.880711	122.65
35.643149	32.880706	116.64
35.643363	32.880702	110.66
35.643576	32.880697	104.75
35.64379	32.880693	98.51
35.644003	32.880688	91.35
35.644217	32.880684	83.2
35.644431	32.880679	75.46
35.644644	32.880675	68.95
35.644858	32.88067	64.04
35.645071	32.880666	60.65
35.645285	32.880661	58.4
35.645498	32.880657	56.87
35.645712	32.880652	55.69
35.645926	32.880648	54.63
35.646139	32.880643	53.54
35.646353	32.880639	52.38
35.646566	32.880634	51.15
35.64678	32.880629	49.93
35.646994	32.880625	48.76
35.647207	32.88062	47.7
35.647421	32.880616	46.82
35.647634	32.880611	46.13
35.647848	32.880607	45.66
35.648061	32.880602	45.42
35.648275	32.880598	45.4
35.648489	32.880593	45.59
35.648702	32.880589	45.98
35.600864	32.881774	126.69
35.601078	32.881769	120.96
35.601292	32.881765	115.19
35.601505	32.88176	109.37
35.601719	32.881756	103.45
35.601932	32.881751	97.4
35.602146	32.881747	91.14
35.60236	32.881743	84.63
35.602573	32.881738	77.79
35.602787	32.881734	70.58
35.603	32.881729	62.97
35.603214	32.881725	54.98
35.603427	32.88172	46.72
35.603641	32.881716	38.35
35.603855	32.881711	30.09
35.604068	32.881707	22.23
35.604282	32.881703	15.0
35.604495	32.881698	8.6
35.604709	32.881694	3.16
35.604923	32.881689	-1.21
35.605136	32.881685	-4.5
35.60535	32.88168	-6.69
35.605563	32.881676	-7.84
35.605777	32.881671	-8.09
35.605991	32.881667	-7.58
35.606204	32.881662	-6.42
35.606418	32.881658	-4.7
35.606631	32.881654	-2.45
35.606845	32.881649	0.2
35.607058	32.881645	2.98
35.607272	32.88164	5.24
35.607486	32.881636	5.9
35.607699	32.881631	3.37
35.607913	32.881627	-3.98
35.608126	32.881622	-16.64
35.60834	32.881618	-31.32
35.608554	32.881613	-36.77
35.608767	32.881609	-27.88
35.608981	32.881605	-24.79
35.609194	32.8816	-33.6
35.609408	32.881596	-51.55
35.609622	32.881591	-73.09
35.609835	32.881587	-94.29
35.610049	32.881582	-112.36
35.610262	32.881578	-125.99
35.610476	32.881573	-135.23
35.61069	32.881569	-141.08
35.610903	32.881564	-144.96
35.611117	32.88156	-148.19
35.61133	32.881555	-151.83
35.611544	32.881551	-156.5
35.611757	32.881547	-162.48
35.611971	32.881542	-169.75
35.612185	32.881538	-178.06
35.612398	32.881533	-187.01
35.612612	32.881529	-196.14
35.612825	32.881524	-204.98
35.613039	32.88152	-213.14
35.613253	32.881515	-220.34
35.613466	32.881511	-226.48
35.61368	32.881506	-231.62
35.613893	32.881502	-236.0
35.614107	32.881497	-239.98
35.614321	32.881493	-243.96
35.614534	32.881489	-248.29
35.614748	32.881484	-253.3
35.614961	32.88148	-259.08
35.615175	32.881475	-265.24
35.615388	32.881471	-270.37
35.615602	32.881466	-272.13
35.615816	32.881462	-267.92
35.616029	32.881457	-260.71
35.616243	32.881453	-253.21
35.616456	32.881448	-246.39
35.61667	32.881444	-240.1
35.616884	32.881439	-233.83
35.617097	32.881435	-227.25
35.617311	32.88143	-220.53
35.617524	32.881426	-214.6
35.617738	32.881421	-210.92
35.617951	32.881417	-207.6
35.618165	32.881413	-204.11
35.618379	32.881408	-200.39
35.618592	32.881404	-196.55
35.618806	32.881399	-192.74
35.619019	32.881395	-188.98
35.619233	32.88139	-185.21
35.619447	32.881386	-181.43
35.61966	32.881381	-177.55
35.619874	32.881377	-173.6
35.620087	32.881372	-169.56
35.620301	32.881368	-165.35
35.620515	32.881363	-160.52
35.620728	32.881359	-155.96
35.620942	32.881354	-152.92
35.621155	32.88135	-151.01
35.621369	32.881345	-149.37
35.621582	32.881341	-147.08
35.621796	32.881336	-144.37
35.62201	32.881332	-142.99
35.622223	32.881327	-145.72
35.622437	32.881323	-154.23
35.62265	32.881318	-163.61
35.622864	32.881314	-151.37
35.623078	32.88131	-137.2
35.623291	32.881305	-126.47
35.623505	32.881301	-119.01
35.623718	32.881296	-113.71
35.623932	32.881292	-109.68
35.624145	32.881287	-106.31
35.624359	32.881283	-102.98
35.624573	32.881278	-99.12
35.624786	32.881274	-94.28
35.625	32.881269	-88.34
35.625213	32.881265	-81.46
35.625427	32.88126	-73.96
35.625641	32.881256	-66.09
35.625854	32.881251	-57.73
35.626068	32.881247	-48.54
35.626281	32.881242	-38.65
35.626495	32.881238	-29.21
35.626709	32.881233	-21.06
35.626922	32.881229	-14.73
35.627136	32.881224	-10.41
35.627349	32.88122	-7.84
35.627563	32.881215	-6.5
35.627776	32.881211	-5.88
35.62799	32.881206	-5.65
35.628204	32.881202	-5.75
35.628417	32.881197	-6.24
35.628631	32.881193	-7.17
35.628844	32.881188	-8.58
35.629058	32.881184	-10.47
35.629272	32.881179	-12.81
35.629485	32.881175	-15.52
35.629699	32.88117	-18.39
35.629912	32.881166	-21.07
35.630126	32.881161	-23.05
35.630339	32.881157	-24.0
35.630553	32.881152	-23.82
35.630767	32.881148	-22.64
35.63098	32.881143	-20.67
35.631194	32.881139	-18.07
35.631407	32.881134	-14.96
35.631621	32.88113	-11.42
35.631835	32.881125	-7.5
35.632048	32.881121	-3.28
35.632262	32.881116	1.17
35.632475	32.881112	5.73
35.632689	32.881107	10.23
35.632902	32.881103	14.53
35.633116	32.881098	18.58
35.63333	32.881094	22.46
35.633543	32.881089	26.38
35.633757	32.881085	30.59
35.63397	32.88108	35.24
35.634184	32.881076	40.26
35.634398	32.881071	45.28
35.634611	32.881067	49.61
35.634825	32.881062	52.05
35.635038	32.881058	50.77
35.635252	32.881053	47.67
35.635465	32.881049	44.29
35.635679	32.881044	41.73
35.635893	32.88104	40.65
35.636106	32.881035	41.32
35.63632	32.881031	43.73
35.636533	32.881026	47.64
35.636747	32.881022	52.82
35.636961	32.881017	59.04
35.637174	32.881013	66.02
35.637388	32.881008	73.27
35.637601	32.881004	79.85
35.637815	32.880999	84.07
35.638028	32.880995	84.46
35.638242	32.88099	79.4
35.638456	32.880986	70.39
35.638669	32.880981	87.47
35.638883	32.880977	90.08
35.639096	32.880972	85.23
35.63931	32.880968	77.84
35.639524	32.880963	71.53
35.639737	32.880959	67.1
35.639951	32.880954	65.29
35.640164	32.88095	66.41
35.640378	32.880945	69.63
35.640591	32.880941	74.12
35.640805	32.880936	80.7
35.641019	32.880932	89.76
35.641232	32.880927	101.0
35.641446	32.880923	112.87
35.641659	32.880918	123.04
35.641873	32.880914	129.4
35.642087	32.880909	131.13
35.6423	32.880905	128.64
35.642514	32.8809	123.05
35.642727	32.880896	115.87
35.642941	32.880891	108.56
35.643154	32.880887	102.19
35.643368	32.880882	97.41
35.643582	32.880878	94.31
35.643795	32.880873	92.1
35.644009	32.880868	88.98
35.644222	32.880864	83.41
35.644436	32.880859	76.88
35.64465	32.880855	71.19
35.644863	32.88085	67.05
35.645077	32.880846	64.35
35.64529	32.880841	62.63
35.645504	32.880837	61.39
35.645717	32.880832	60.24
35.645931	32.880828	58.96
35.646145	32.880823	57.47
35.646358	32.880819	55.8
35.646572	32.880814	54.02
35.646785	32.88081	52.23
35.646999	32.880805	50.54
35.647212	32.880801	49.01
35.647426	32.880796	47.72
35.64764	32.880792	46.7
35.647853	32.880787	45.95
35.648067	32.880783	45.48
35.64828	32.880778	45.28
35.648494	32.880774	45.32
35.648708	32.880769	45.59
35.648921	32.880764	46.05
35.600656	32.881958	132.17
35.60087	32.881954	126.66
35.601083	32.881949	121.16
35.601297	32.881945	115.63
35.60151	32.881941	110.06
35.601724	32.881936	104.42
35.601938	32.881932	98.66
35.602151	32.881927	92.7
35.602365	32.881923	86.46
35.602578	32.881918	79.87
35.602792	32.881914	72.83
35.603006	32.881909	65.3
35.603219	32.881905	57.24
35.603433	32.881901	48.74
35.603646	32.881896	39.95
35.60386	32.881892	31.15
35.604074	32.881887	22.66
35.604287	32.881883	14.79
35.604501	32.881878	7.76
35.604714	32.881874	1.74
35.604928	32.881869	-3.18
35.605141	32.881865	-6.9
35.605355	32.881861	-9.37
35.605569	32.881856	-10.63
35.605782	32.881852	-10.86
35.605996	32.881847	-10.3
35.606209	32.881843	-9.18
35.606423	32.881838	-7.67
35.606637	32.881834	-5.9
35.60685	32.881829	-4.06
35.607064	32.881825	-2.45
35.607277	32.88182	-1.6
35.607491	32.881816	-2.36
35.607705	32.881812	-5.78
35.607918	32.881807	-12.7
35.608132	32.881803	-22.75
35.608345	32.881798	-32.65
35.608559	32.881794	-34.7
35.608772	32.881789	-30.15
35.608986	32.881785	-28.0
35.6092	32.88178	-33.11
35.609413	32.881776	-45.27
35.609627	32.881771	-61.69
35.60984	32.881767	-79.8
35.610054	32.881762	-97.3
35.610268	32.881758	-111.63
35.610481	32.881754	-122.18
35.610695	32.881749	-129.81
35.610908	32.881745	-135.68
35.611122	32.88174	-140.95
35.611336	32.881736	-146.52
35.611549	32.881731	-152.89
35.611763	32.881727	-160.25
35.611976	32.881722	-168.59
35.61219	32.881718	-177.69
35.612404	32.881713	-187.22
35.612617	32.881709	-196.77
35.612831	32.881704	-205.93
35.613044	32.8817	-214.38
35.613258	32.881696	-221.88
35.613471	32.881691	-228.4
35.613685	32.881687	-234.04
35.613899	32.881682	-239.08
35.614112	32.881678	-243.87
35.614326	32.881673	-248.76
35.614539	32.881669	-254.02
35.614753	32.881664	-259.76
35.614967	32.88166	-265.82
35.61518	32.881655	-271.53
35.615394	32.881651	-275.57
35.615607	32.881646	-276.16
35.615821	32.881642	-272.7
35.616035	32.881637	-266.6
35.616248	32.881633	-259.48
35.616462	32.881629	-252.27
35.616675	32.881624	-245.22
35.616889	32.88162	-238.24
35.617102	32.881615	-231.31
35.617316	32.881611	-224.7
35.61753	32.881606	-219.04
35.617743	32.881602	-214.71
35.617957	32.881597	-210.97
35.61817	32.881593	-207.33
35.618384	32.881588	-203.59
35.618598	32.881584	-199.74
35.618811	32.881579	-195.85
35.619025	32.881575	-191.94
35.619238	32.88157	-187.99
35.619452	32.881566	-184.01
35.619665	32.881561	-179.95
35.619879	32.881557	-175.83
35.620093	32.881552	-171.62
35.620306	32.881548	-167.24
35.62052	32.881543	-162.56
35.620733	32.881539	-158.19
35.620947	32.881535	-154.87
35.621161	32.88153	-153.05
35.621374	32.881526	-151.4
35.621588	32.881521	-148.23
35.621801	32.881517	-143.38
35.622015	32.881512	-138.5
35.622229	32.881508	-137.28
35.622442	32.881503	-145.33
35.622656	32.881499	-164.64
35.622869	32.881494	-142.88
35.623083	32.88149	-128.79
35.623296	32.881485	-120.92
35.62351	32.881481	-116.2
35.623724	32.881476	-112.93
35.623937	32.881472	-110.38
35.624151	32.881467	-108.23
35.624364	32.881463	-105.94
35.624578	32.881458	-102.74
35.624792	32.881454	-98.12
35.625005	32.881449	-91.91
35.625219	32.881445	-84.44
35.625432	32.88144	-76.31
35.625646	32.881436	-68.06
35.62586	32.881431	-59.41
35.626073	32.881427	-49.33
35.626287	32.881422	-38.54
35.6265	32.881418	-28.41
35.626714	32.881413	-19.83
35.626927	32.881409	-13.47
35.627141	32.881404	-9.57
35.627355	32.8814	-7.72
35.627568	32.881396	-7.03
35.627782	32.881391	-6.74
35.627995	32.881387	-6.5
35.628209	32.881382	-6.33
35.628423	32.881378	-6.46
35.628636	32.881373	-7.05
35.62885	32.881369	-8.14
35.629063	32.881364	-9.74
35.629277	32.88136	-11.88
35.62949	32.881355	-14.56
35.629704	32.881351	-17.6
35.629918	32.881346	-20.52
35.630131	32.881342	-22.67
35.630345	32.881337	-23.57
35.630558	32.881333	-23.05
35.630772	32.881328	-21.35
35.630986	32.881324	-18.79
35.631199	32.881319	-15.63
35.631413	32.881315	-12.04
35.631626	32.88131	-8.11
35.63184	32.881306	-3.93
35.632053	32.881301	0.44
35.632267	32.881297	4.94
35.632481	32.881292	9.48
35.632694	32.881288	13.93
35.632908	32.881283	18.22
35.633121	32.881279	22.32
35.633335	32.881274	26.28
35.633549	32.88127	30.23
35.633762	32.881265	34.33
35.633976	32.881261	38.65
35.634189	32.881256	43.14
35.634403	32.881252	47.49
35.634616	32.881247	51.17
35.63483	32.881243	53.34
35.635044	32.881238	52.88
35.635257	32.881234	51.03
35.635471	32.881229	48.87
35.635684	32.881225	47.26
35.635898	32.88122	46.76
35.636112	32.881216	47.64
35.636325	32.881211	49.94
35.636539	32.881207	53.5
35.636752	32.881202	58.11
35.636966	32.881198	63.48
35.637179	32.881193	69.19
35.637393	32.881189	74.62
35.637607	32.881184	78.75
35.63782	32.88118	80.18
35.638034	32.881175	77.65
35.638247	32.881171	70.78
35.638461	32.881166	63.81
35.638675	32.881162	78.52
35.638888	32.881157	85.14
35.639102	32.881153	83.53
35.639315	32.881148	77.92
35.639529	32.881143	71.94
35.639742	32.881139	67.24
35.639956	32.881134	64.79
35.64017	32.88113	64.86
35.640383	32.881125	67.0
35.640597	32.881121	70.73
35.64081	32.881116	76.57
35.641024	32.881112	85.37
35.641238	32.881107	97.07
35.641451	32.881103	109.95
35.641665	32.881098	120.83
35.641878	32.881094	126.76
35.642092	32.881089	126.75
35.642305	32.881085	121.72
35.642519	32.88108	113.28
35.642733	32.881076	103.6
35.642946	32.881071	94.7
35.64316	32.881067	87.99
35.643373	32.881062	84.36
35.643587	32.881058	84.18
35.643801	32.881053	86.59
35.644014	32.881049	88.06
35.644228	32.881044	83.86
35.644441	32.88104	77.82
35.644655	32.881035	72.89
35.644868	32.881031	69.83
35.645082	32.881026	68.23
35.645296	32.881022	67.34
35.645509	32.881017	66.55
35.645723	32.881013	65.46
35.645936	32.881008	63.9
35.64615	32.881003	61.91
35.646364	32.880999	59.61
35.646577	32.880994	57.16
35.646791	32.88099	54.72
35.647004	32.880985	52.43
35.647218	32.880981	50.4
35.647431	32.880976	48.68
35.647645	32.880972	47.31
35.647859	32.880967	46.29
35.648072	32.880963	45.61
35.648286	32.880958	45.23
35.648499	32.880954	45.14
35.648713	32.880949	45.29
35.648926	32.880945	45.66
35.64914	32.88094	46.2
35.600661	32.882139	131.95
35.600875	32.882134	126.66
35.601089	32.88213	121.38
35.601302	32.882125	116.11
35.601516	32.882121	110.82
35.601729	32.882116	105.48
35.601943	32.882112	100.03
35.602156	32.882107	94.4
35.60237	32.882103	88.5
35.602584	32.882099	82.21
35.602797	32.882094	75.42
35.603011	32.88209	68.01
35.603224	32.882085	59.93
35.603438	32.882081	51.18
35.603652	32.882076	41.93
35.603865	32.882072	32.53
35.604079	32.882067	23.39
35.604292	32.882063	14.9
35.604506	32.882059	7.29
35.60472	32.882054	0.71
35.604933	32.88205	-4.73
35.605147	32.882045	-8.9
35.60536	32.882041	-11.68
35.605574	32.882036	-13.08
35.605788	32.882032	-13.37
35.606001	32.882027	-12.91
35.606215	32.882023	-12.07
35.606428	32.882018	-11.11
35.606642	32.882014	-10.18
35.606855	32.88201	-9.42
35.607069	32.882005	-9.06
35.607283	32.882001	-9.38
35.607496	32.881996	-10.82
35.60771	32.881992	-13.93
35.607923	32.881987	-19.1
35.608137	32.881983	-26.02
35.608351	32.881978	-32.65
35.608564	32.881974	-34.63
35.608778	32.881969	-33.36
35.608991	32.881965	-33.14
35.609205	32.881961	-37.16
35.609419	32.881956	-46.1
35.609632	32.881952	-58.86
35.609846	32.881947	-73.79
35.610059	32.881943	-89.0
35.610273	32.881938	-102.41
35.610486	32.881934	-112.77
35.6107	32.881929	-120.95
35.610914	32.881925	-127.86
35.611127	32.88192	-134.52
35.611341	32.881916	-141.61
35.611554	32.881911	-149.44
35.611768	32.881907	-158.09
35.611982	32.881903	-167.49
35.612195	32.881898	-177.44
35.612409	32.881894	-187.65
35.612622	32.881889	-197.74
35.612836	32.881885	-207.32
35.61305	32.88188	-216.08
35.613263	32.881876	-223.83
35.613477	32.881871	-230.58
35.61369	32.881867	-236.49
35.613904	32.881862	-241.89
35.614118	32.881858	-247.14
35.614331	32.881853	-252.56
35.614545	32.881849	-258.37
35.614758	32.881844	-264.53
35.614972	32.88184	-270.71
35.615185	32.881836	-276.19
35.615399	32.881831	-279.8
35.615613	32.881827	-279.68
35.615826	32.881822	-276.46
35.61604	32.881818	-271.0
35.616253	32.881813	-264.3
35.616467	32.881809	-257.11
35.616681	32.881804	-249.8
35.616894	32.8818	-242.53
35.617108	32.881795	-235.45
35.617321	32.881791	-228.87
35.617535	32.881786	-223.24
35.617749	32.881782	-218.56
35.617962	32.881777	-214.45
35.618176	32.881773	-210.55
35.618389	32.881768	-206.65
35.618603	32.881764	-202.68
35.618816	32.88176	-198.63
35.61903	32.881755	-194.52
35.619244	32.881751	-190.35
35.619457	32.881746	-186.15
35.619671	32.881742	-181.9
35.619884	32.881737	-177.63
35.620098	32.881733	-173.34
35.620312	32.881728	-169.01
35.620525	32.881724	-164.72
35.620739	32.881719	-160.84
35.620952	32.881715	-157.81
35.621166	32.88171	-155.74
35.621379	32.881706	-153.68
35.621593	32.881701	-150.41
35.621807	32.881697	-145.53
35.62202	32.881692	-139.37
35.622234	32.881688	-131.24
35.622447	32.881683	-129.2
35.622661	32.881679	-148.67
35.622875	32.881674	-127.03
35.623088	32.88167	-121.89
35.623302	32.881665	-118.98
35.623515	32.881661	-116.9
35.623729	32.881656	-115.0
35.623943	32.881652	-113.24
35.624156	32.881648	-111.87
35.62437	32.881643	-110.38
35.624583	32.881639	-107.66
35.624797	32.881634	-102.99
35.62501	32.88163	-96.12
35.625224	32.881625	-87.55
35.625438	32.881621	-78.33
35.625651	32.881616	-69.6
35.625865	32.881612	-61.06
35.626078	32.881607	-49.6
35.626292	32.881603	-37.84
35.626506	32.881598	-27.11
35.626719	32.881594	-18.1
35.626933	32.881589	-11.73
35.627146	32.881585	-8.49
35.62736	32.88158	-7.7
35.627574	32.881576	-7.9
35.627787	32.881571	-7.97
35.628001	32.881567	-7.55
35.628214	32.881562	-6.89
35.628428	32.881558	-6.5
35.628641	32.881553	-6.64
35.628855	32.881549	-7.31
35.629069	32.881544	-8.49
35.629282	32.88154	-10.27
35.629496	32.881535	-12.85
35.629709	32.881531	-16.17
35.629923	32.881526	-19.66
35.630137	32.881522	-22.26
35.63035	32.881517	-23.06
35.630564	32.881513	-22.02
35.630777	32.881508	-19.66
35.630991	32.881504	-16.47
35.631204	32.881499	-12.77
35.631418	32.881495	-8.75
35.631632	32.88149	-4.51
35.631845	32.881486	-0.12
35.632059	32.881481	4.37
35.632272	32.881477	8.91
35.632486	32.881472	13.43
35.6327	32.881468	17.85
35.632913	32.881463	22.11
35.633127	32.881459	26.17
35.63334	32.881454	30.06
35.633554	32.88145	33.86
35.633767	32.881445	37.65
35.633981	32.881441	41.47
35.634195	32.881436	45.27
35.634408	32.881432	48.87
35.634622	32.881427	51.91
35.634835	32.881423	53.89
35.635049	32.881418	54.28
35.635263	32.881414	53.68
35.635476	32.881409	52.77
35.63569	32.881405	52.15
35.635903	32.8814	52.28
35.636117	32.881396	53.4
35.63633	32.881391	55.57
35.636544	32.881387	58.71
35.636758	32.881382	62.6
35.636971	32.881378	66.93
35.637185	32.881373	71.25
35.637398	32.881369	74.94
35.637612	32.881364	77.15
35.637826	32.88136	76.98
35.638039	32.881355	74.01
35.638253	32.881351	69.25
35.638466	32.881346	66.95
35.63868	32.881342	74.03
35.638893	32.881337	79.15
35.639107	32.881333	79.19
35.639321	32.881328	75.64
35.639534	32.881324	70.94
35.639748	32.881319	66.79
35.639961	32.881315	64.25
35.640175	32.88131	63.76
35.640389	32.881306	65.3
35.640602	32.881301	68.77
35.640816	32.881297	74.53
35.641029	32.881292	83.06
35.641243	32.881288	94.16
35.641456	32.881283	107.0
35.64167	32.881279	118.26
35.641884	32.881274	123.71
35.642097	32.88127	122.07
35.642311	32.881265	114.82
35.642524	32.881261	103.81
35.642738	32.881256	91.95
35.642952	32.881251	81.79
35.643165	32.881247	74.8
35.643379	32.881242	71.92
35.643592	32.881238	74.06
35.643806	32.881233	81.38
35.644019	32.881229	89.03
35.644233	32.881224	83.64
35.644447	32.88122	77.18
35.64466	32.881215	73.4
35.644874	32.881211	72.15
35.645087	32.881206	72.26
35.645301	32.881202	72.6
35.645515	32.881197	72.41
35.645728	32.881193	71.34
35.645942	32.881188	69.39
35.646155	32.881184	66.75
35.646369	32.881179	63.67
35.646582	32.881175	60.43
35.646796	32.88117	57.26
35.64701	32.881166	54.33
35.647223	32.881161	51.76
35.647437	32.881157	49.61
35.64765	32.881152	47.91
35.647864	32.881148	46.63
35.648078	32.881143	45.75
35.648291	32.881138	45.23
35.648505	32.881134	45.02
35.648718	32.881129	45.07
35.648932	32.881125	45.36
35.649145	32.88112	45.84
35.649359	32.881116	46.47
35.600453	32.882323	136.81
35.600667	32.882319	131.71
35.60088	32.882314	126.64
35.601094	32.88231	121.6
35.601307	32.882305	116.59
35.601521	32.882301	111.6
35.601735	32.882297	106.57
35.601948	32.882292	101.47
35.602162	32.882288	96.2
35.602375	32.882283	90.68
35.602589	32.882279	84.76
35.602803	32.882274	78.29
35.603016	32.88227	71.12
35.60323	32.882265	63.08
35.603443	32.882261	54.12
35.603657	32.882257	44.39
35.60387	32.882252	34.32
35.604084	32.882248	24.5
35.604298	32.882243	15.43
35.604511	32.882239	7.34
35.604725	32.882234	0.31
35.604938	32.88223	-5.62
35.605152	32.882225	-10.28
35.605366	32.882221	-13.39
35.605579	32.882217	-14.93
35.605793	32.882212	-15.25
35.606006	32.882208	-14.96
35.60622	32.882203	-14.56
35.606434	32.882199	-14.35
35.606647	32.882194	-14.45
35.606861	32.88219	-14.94
35.607074	32.882185	-15.85
35.607288	32.882181	-17.18
35.607502	32.882176	-18.9
35.607715	32.882172	-21.07
35.607929	32.882168	-23.93
35.608142	32.882163	-27.91
35.608356	32.882159	-32.82
35.608569	32.882154	-36.13
35.608783	32.88215	-37.77
35.608997	32.882145	-39.58
35.60921	32.882141	-43.61
35.609424	32.882136	-50.78
35.609637	32.882132	-60.87
35.609851	32.882127	-72.91
35.610065	32.882123	-85.56
35.610278	32.882118	-97.27
35.610492	32.882114	-106.77
35.610705	32.88211	-114.77
35.610919	32.882105	-122.01
35.611133	32.882101	-129.45
35.611346	32.882096	-137.69
35.61156	32.882092	-146.69
35.611773	32.882087	-156.41
35.611987	32.882083	-166.75
35.612201	32.882078	-177.52
35.612414	32.882074	-188.44
35.612628	32.882069	-199.12
35.612841	32.882065	-209.15
35.613055	32.88206	-218.21
35.613268	32.882056	-226.12
35.613482	32.882052	-232.9
35.613696	32.882047	-238.8
35.613909	32.882043	-244.21
35.614123	32.882038	-249.55
35.614336	32.882034	-255.17
35.61455	32.882029	-261.21
35.614764	32.882025	-267.54
35.614977	32.88202	-273.72
35.615191	32.882016	-278.97
35.615404	32.882011	-282.17
35.615618	32.882007	-281.97
35.615832	32.882002	-279.06
35.616045	32.881998	-274.13
35.616259	32.881993	-267.92
35.616472	32.881989	-261.01
35.616686	32.881984	-253.78
35.616899	32.88198	-246.52
35.617113	32.881976	-239.46
35.617327	32.881971	-232.91
35.61754	32.881967	-227.25
35.617754	32.881962	-222.36
35.617967	32.881958	-217.97
35.618181	32.881953	-213.81
35.618395	32.881949	-209.69
35.618608	32.881944	-205.51
35.618822	32.88194	-201.24
35.619035	32.881935	-196.88
35.619249	32.881931	-192.46
35.619463	32.881926	-188.02
35.619676	32.881922	-183.6
35.61989	32.881917	-179.22
35.620103	32.881913	-174.95
35.620317	32.881908	-170.83
35.62053	32.881904	-166.99
35.620744	32.881899	-163.68
35.620958	32.881895	-161.13
35.621171	32.88189	-159.3
35.621385	32.881886	-157.66
35.621598	32.881882	-155.59
35.621812	32.881877	-153.03
35.622026	32.881873	-150.77
35.622239	32.881868	-150.87
35.622453	32.881864	-160.15
35.622666	32.881859	-180.18
35.62288	32.881855	-154.79
35.623094	32.88185	-137.09
35.623307	32.881846	-128.54
35.623521	32.881841	-124.48
35.623734	32.881837	-121.59
35.623948	32.881832	-119.16
35.624161	32.881828	-117.71
35.624375	32.881823	-116.52
35.624589	32.881819	-113.89
35.624802	32.881814	-108.92
35.625016	32.88181	-101.04
35.625229	32.881805	-90.89
35.625443	32.881801	-79.9
35.625657	32.881796	-70.32
35.62587	32.881792	-62.88
35.626084	32.881787	-49.04
35.626297	32.881783	-36.88
35.626511	32.881778	-25.95
35.626724	32.881774	-16.52
35.626938	32.881769	-10.02
35.627152	32.881765	-7.6
35.627365	32.88176	-8.21
35.627579	32.881756	-9.47
35.627792	32.881751	-9.78
35.628006	32.881747	-8.9
35.62822	32.881742	-7.43
35.628433	32.881738	-6.35
35.628647	32.881733	-6.04
35.62886	32.881729	-6.23
35.629074	32.881725	-6.8
35.629288	32.88172	-7.95
35.629501	32.881716	-10.21
35.629715	32.881711	-13.89
35.629928	32.881707	-18.37
35.630142	32.881702	-21.88
35.630355	32.881698	-22.48
35.630569	32.881693	-20.66
35.630783	32.881689	-17.47
35.630996	32.881684	-13.63
35.63121	32.88168	-9.47
35.631423	32.881675	-5.12
35.631637	32.881671	-0.66
35.631851	32.881666	3.87
35.632064	32.881662	8.43
35.632278	32.881657	12.99
35.632491	32.881653	17.51
35.632705	32.881648	21.9
35.632918	32.881644	26.11
35.633132	32.881639	30.09
35.633346	32.881635	33.83
35.633559	32.88163	37.35
35.633773	32.881626	40.71
35.633986	32.881621	43.94
35.6342	32.881617	47.02
35.634414	32.881612	49.87
35.634627	32.881608	52.36
35.634841	32.881603	54.3
35.635054	32.881599	55.47
35.635268	32.881594	56.0
35.635481	32.88159	56.22
35.635695	32.881585	56.52
35.635909	32.881581	57.23
35.636122	32.881576	58.57
35.636336	32.881572	60.62
35.636549	32.881567	63.32
35.636763	32.881563	66.48
35.636977	32.881558	69.81
35.63719	32.881554	72.92
35.637404	32.881549	75.28
35.637617	32.881545	76.33
35.637831	32.88154	75.59
35.638044	32.881535	73.13
35.638258	32.881531	70.09
35.638472	32.881526	68.97
35.638685	32.881522	72.23
35.638899	32.881517	75.11
35.639112	32.881513	75.2
35.639326	32.881508	72.75
35.63954	32.881504	69.11
35.639753	32.881499	65.63
35.639967	32.881495	63.29
35.64018	32.88149	62.63
35.640394	32.881486	63.88
35.640607	32.881481	67.17
35.640821	32.881477	72.73
35.641035	32.881472	80.72
35.641248	32.881468	90.83
35.641462	32.881463	102.02
35.641675	32.881459	111.78
35.641889	32.881454	117.07
35.642103	32.88145	115.23
35.642316	32.881445	107.11
35.64253	32.881441	94.76
35.642743	32.881436	81.93
35.642957	32.881432	71.57
35.64317	32.881427	64.81
35.643384	32.881423	62.11
35.643598	32.881418	64.53
35.643811	32.881414	74.47
35.644025	32.881409	89.69
35.644238	32.881405	79.49
35.644452	32.8814	73.48
35.644666	32.881396	72.51
35.644879	32.881391	74.32
35.645093	32.881387	76.87
35.645306	32.881382	78.73
35.64552	32.881377	79.13
35.645733	32.881373	77.92
35.645947	32.881368	75.36
35.646161	32.881364	71.85
35.646374	32.881359	67.82
35.646588	32.881355	63.66
35.646801	32.88135	59.68
35.647015	32.881346	56.07
35.647229	32.881341	52.97
35.647442	32.881337	50.43
35.647656	32.881332	48.42
35.647869	32.881328	46.93
35.648083	32.881323	45.9
35.648296	32.881319	45.25
35.64851	32.881314	44.95
35.648724	32.88131	44.93
35.648937	32.881305	45.15
35.649151	32.881301	45.57
35.649364	32.881296	46.14
35.649578	32.881292	46.84
35.600458	32.882504	136.32
35.600672	32.882499	131.43
35.600885	32.882495	126.58
35.601099	32.88249	121.78
35.601313	32.882486	117.04
35.601526	32.882481	112.33
35.60174	32.882477	107.63
35.601953	32.882472	102.88
35.602167	32.882468	98.0
35.602381	32.882463	92.89
35.602594	32.882459	87.41
35.602808	32.882455	81.37
35.603021	32.88245	74.55
35.603235	32.882446	66.7
35.603449	32.882441	57.62
35.603662	32.882437	47.37
35.603876	32.882432	36.56
35.604089	32.882428	26.05
35.604303	32.882423	16.52
35.604517	32.882419	8.13
35.60473	32.882415	0.81
35.604944	32.88241	-5.52
35.605157	32.882406	-10.72
35.605371	32.882401	-14.17
35.605584	32.882397	-15.82
35.605798	32.882392	-16.13
35.606012	32.882388	-16.01
35.606225	32.882383	-16.13
35.606439	32.882379	-16.8
35.606652	32.882374	-18.04
35.606866	32.88237	-19.83
35.60708	32.882366	-22.09
35.607293	32.882361	-24.53
35.607507	32.882357	-26.61
35.60772	32.882352	-27.86
35.607934	32.882348	-28.27
35.608148	32.882343	-29.37
35.608361	32.882339	-33.94
35.608575	32.882334	-39.56
35.608788	32.88233	-43.74
35.609002	32.882325	-47.18
35.609216	32.882321	-51.41
35.609429	32.882317	-57.45
35.609643	32.882312	-65.54
35.609856	32.882308	-75.2
35.61007	32.882303	-85.52
35.610283	32.882299	-95.41
35.610497	32.882294	-103.99
35.610711	32.88229	-111.48
35.610924	32.882285	-118.61
35.611138	32.882281	-126.38
35.611351	32.882276	-135.37
35.611565	32.882272	-145.15
35.611779	32.882267	-155.6
35.611992	32.882263	-166.62
35.612206	32.882259	-178.07
35.612419	32.882254	-189.65
35.612633	32.88225	-200.94
35.612847	32.882245	-211.43
35.61306	32.882241	-220.75
35.613274	32.882236	-228.69
35.613487	32.882232	-235.28
35.613701	32.882227	-240.85
35.613915	32.882223	-245.91
35.614128	32.882218	-250.98
35.614342	32.882214	-256.49
35.614555	32.882209	-262.54
35.614769	32.882205	-268.92
35.614982	32.8822	-275.07
35.615196	32.882196	-280.16
35.61541	32.882192	-283.16
35.615623	32.882187	-283.06
35.615837	32.882183	-280.56
35.61605	32.882178	-276.21
35.616264	32.882174	-270.57
35.616478	32.882169	-264.11
35.616691	32.882165	-257.2
35.616905	32.88216	-250.14
35.617118	32.882156	-243.22
35.617332	32.882151	-236.76
35.617546	32.882147	-231.11
35.617759	32.882142	-226.1
35.617973	32.882138	-221.53
35.618186	32.882133	-217.16
35.6184	32.882129	-212.81
35.618613	32.882124	-208.37
35.618827	32.88212	-203.82
35.619041	32.882115	-199.17
35.619254	32.882111	-194.47
35.619468	32.882107	-189.78
35.619681	32.882102	-185.17
35.619895	32.882098	-180.72
35.620109	32.882093	-176.51
35.620322	32.882089	-172.65
35.620536	32.882084	-169.28
35.620749	32.88208	-166.58
35.620963	32.882075	-164.69
35.621177	32.882071	-163.58
35.62139	32.882066	-163.05
35.621604	32.882062	-162.9
35.621817	32.882057	-163.39
35.622031	32.882053	-165.42
35.622244	32.882048	-170.62
35.622458	32.882044	-180.72
35.622672	32.882039	-190.05
35.622885	32.882035	-174.31
35.623099	32.88203	-156.81
35.623312	32.882026	-144.73
35.623526	32.882021	-137.26
35.62374	32.882017	-132.24
35.623953	32.882012	-128.6
35.624167	32.882008	-126.08
35.62438	32.882003	-123.93
35.624594	32.881999	-120.83
35.624808	32.881995	-115.34
35.625021	32.88199	-106.42
35.625235	32.881986	-94.82
35.625448	32.881981	-81.72
35.625662	32.881977	-69.99
35.625875	32.881972	-62.2
35.626089	32.881968	-47.72
35.626303	32.881963	-36.89
35.626516	32.881959	-26.26
35.62673	32.881954	-16.33
35.626943	32.88195	-9.46
35.627157	32.881945	-7.73
35.627371	32.881941	-9.71
35.627584	32.881936	-11.88
35.627798	32.881932	-12.18
35.628011	32.881927	-10.51
35.628225	32.881923	-7.87
35.628438	32.881918	-6.05
35.628652	32.881914	-5.45
35.628866	32.881909	-5.18
35.629079	32.881905	-4.91
35.629293	32.8819	-4.95
35.629506	32.881896	-6.39
35.62972	32.881891	-10.34
35.629934	32.881887	-16.4
35.630147	32.881882	-21.78
35.630361	32.881878	-21.71
35.630574	32.881873	-18.64
35.630788	32.881869	-14.55
35.631002	32.881864	-10.19
35.631215	32.88186	-5.74
