lon	lat	North
35.638146	32.88496	-39.91
35.63836	32.884955	-43.26
35.638573	32.884951	-45.19
35.638787	32.884946	-43.61
35.639	32.884942	-40.42
35.639214	32.884937	-36.84
35.639428	32.884933	-33.54
35.639641	32.884928	-30.78
35.639855	32.884924	-28.52
35.640068	32.884919	-26.54
35.640282	32.884915	-24.57
35.640496	32.88491	-22.55
35.640709	32.884906	-20.69
35.640923	32.884901	-19.2
35.641136	32.884896	-18.22
35.64135	32.884892	-17.75
35.641563	32.884887	-17.68
35.641777	32.884883	-17.69
35.641991	32.884878	-17.23
35.642204	32.884874	-15.55
35.642418	32.884869	-11.78
35.642631	32.884865	-5.67
35.642845	32.88486	-0.67
35.643059	32.884856	-6.12
35.643272	32.884851	-16.07
35.643486	32.884847	-24.32
35.643699	32.884842	-29.98
35.643913	32.884838	-33.21
35.644127	32.884833	-34.52
35.64434	32.884829	-34.53
35.644554	32.884824	-33.86
35.644767	32.88482	-33.03
35.644981	32.884815	-32.55
35.645195	32.884811	-32.82
35.645408	32.884806	-34.02
35.645622	32.884802	-35.91
35.645835	32.884797	-37.43
35.646049	32.884793	-37.25
35.646262	32.884788	-35.48
35.646476	32.884784	-32.54
35.64669	32.884779	-28.82
35.646903	32.884774	-24.61
35.647117	32.88477	-20.14
35.64733	32.884765	-15.56
35.647544	32.884761	-10.99
35.647758	32.884756	-6.51
35.647971	32.884752	-2.16
35.648185	32.884747	2.03
35.648398	32.884743	6.05
35.648612	32.884738	9.91
35.648826	32.884734	13.62
35.599918	32.885941	-119.84
35.600131	32.885937	-114.83
35.600345	32.885932	-109.8
35.600558	32.885928	-104.75
35.600772	32.885923	-99.65
35.600986	32.885919	-94.51
35.601199	32.885914	-89.3
35.601413	32.88591	-84.03
35.601626	32.885906	-78.69
35.60184	32.885901	-73.31
35.602054	32.885897	-67.88
35.602267	32.885892	-62.44
35.602481	32.885888	-57.03
35.602694	32.885883	-51.69
35.602908	32.885879	-46.47
35.603122	32.885874	-41.41
35.603335	32.88587	-36.54
35.603549	32.885866	-31.91
35.603762	32.885861	-27.54
35.603976	32.885857	-23.42
35.60419	32.885852	-19.54
35.604403	32.885848	-15.87
35.604617	32.885843	-12.34
35.60483	32.885839	-8.86
35.605044	32.885834	-5.35
35.605258	32.88583	-1.68
35.605471	32.885825	2.24
35.605685	32.885821	6.5
35.605898	32.885817	11.17
35.606112	32.885812	16.32
35.606326	32.885808	21.99
35.606539	32.885803	28.2
35.606753	32.885799	34.9
35.606966	32.885794	42.0
35.60718	32.88579	49.3
35.607394	32.885785	56.55
35.607607	32.885781	63.54
35.607821	32.885776	70.19
35.608034	32.885772	76.22
35.608248	32.885768	81.39
35.608462	32.885763	85.62
35.608675	32.885759	88.94
35.608889	32.885754	91.47
35.609102	32.88575	93.35
35.609316	32.885745	94.75
35.60953	32.885741	95.81
35.609743	32.885736	96.65
35.609957	32.885732	97.38
35.61017	32.885727	98.04
35.610384	32.885723	98.7
35.610598	32.885718	99.35
35.610811	32.885714	100.01
35.611025	32.88571	100.63
35.611238	32.885705	101.2
35.611452	32.885701	101.65
35.611666	32.885696	101.94
35.611879	32.885692	102.05
35.612093	32.885687	101.93
35.612306	32.885683	101.6
35.61252	32.885678	101.07
35.612734	32.885674	100.39
35.612947	32.885669	99.66
35.613161	32.885665	99.03
35.613374	32.88566	98.73
35.613588	32.885656	99.14
35.613802	32.885652	100.78
35.614015	32.885647	103.31
35.614229	32.885643	97.1
35.614442	32.885638	63.49
35.614656	32.885634	84.67
35.614869	32.885629	97.53
35.615083	32.885625	102.51
35.615297	32.88562	102.03
35.61551	32.885616	96.77
35.615724	32.885611	87.08
35.615937	32.885607	74.77
35.616151	32.885602	62.34
35.616365	32.885598	51.89
35.616578	32.885593	44.09
35.616792	32.885589	38.14
35.617005	32.885584	33.38
35.617219	32.88558	32.82
35.617433	32.885576	34.85
35.617646	32.885571	35.94
35.61786	32.885567	35.73
35.618073	32.885562	34.5
35.618287	32.885558	32.53
35.618501	32.885553	30.01
35.618714	32.885549	27.1
35.618928	32.885544	23.95
35.619141	32.88554	20.81
35.619355	32.885535	17.65
35.619569	32.885531	14.45
35.619782	32.885526	11.19
35.619996	32.885522	7.97
35.620209	32.885517	5.14
35.620423	32.885513	3.04
35.620637	32.885508	1.88
35.62085	32.885504	1.54
35.621064	32.885499	1.31
35.621277	32.885495	0.82
35.621491	32.88549	0.44
35.621705	32.885486	0.12
35.621918	32.885481	-1.2
35.622132	32.885477	-2.57
35.622345	32.885473	-3.91
35.622559	32.885468	-10.88
35.622773	32.885464	-19.08
35.622986	32.885459	-26.83
35.6232	32.885455	-33.82
35.623413	32.88545	-40.18
35.623627	32.885446	-46.33
35.623841	32.885441	-52.71
35.624054	32.885437	-59.35
35.624268	32.885432	-65.92
35.624481	32.885428	-71.89
35.624695	32.885423	-76.48
35.624909	32.885419	-79.07
35.625122	32.885414	-79.8
35.625336	32.88541	-78.95
35.625549	32.885405	-76.79
35.625763	32.885401	-72.73
35.625977	32.885396	-66.37
35.62619	32.885392	-57.47
35.626404	32.885387	-45.87
35.626617	32.885383	-31.83
35.626831	32.885378	-18.73
35.627044	32.885374	-17.0
35.627258	32.885369	-16.71
35.627472	32.885365	-14.82
35.627685	32.88536	-11.61
35.627899	32.885356	-7.83
35.628112	32.885351	-3.79
35.628326	32.885347	0.21
35.62854	32.885342	4.01
35.628753	32.885338	7.63
35.628967	32.885333	11.27
35.62918	32.885329	15.3
35.629394	32.885324	20.08
35.629608	32.88532	25.79
35.629821	32.885315	32.21
35.630035	32.885311	38.55
35.630248	32.885306	43.44
35.630462	32.885302	45.35
35.630676	32.885297	44.13
35.630889	32.885293	41.0
35.631103	32.885288	37.0
35.631316	32.885284	32.62
35.63153	32.885279	27.97
35.631744	32.885275	22.94
35.631957	32.88527	17.29
35.632171	32.885266	10.79
35.632384	32.885261	3.34
35.632598	32.885257	-4.94
35.632812	32.885252	-13.59
35.633025	32.885248	-21.89
35.633239	32.885243	-29.09
35.633452	32.885239	-34.51
35.633666	32.885234	-37.9
35.633879	32.88523	-39.39
35.634093	32.885225	-39.27
35.634307	32.885221	-37.72
35.63452	32.885216	-34.03
35.634734	32.885212	-26.22
35.634947	32.885207	-38.47
35.635161	32.885203	-48.31
35.635375	32.885198	-53.25
35.635588	32.885194	-54.77
35.635802	32.885189	-54.47
35.636015	32.885185	-52.68
35.636229	32.88518	-49.81
35.636443	32.885176	-46.08
35.636656	32.885171	-41.92
35.63687	32.885167	-38.0
35.637083	32.885162	-34.98
35.637297	32.885158	-33.45
35.637511	32.885153	-33.54
35.637724	32.885149	-35.15
35.637938	32.885144	-38.19
35.638151	32.88514	-42.55
35.638365	32.885135	-47.58
35.638579	32.885131	-51.32
35.638792	32.885126	-49.64
35.639006	32.885122	-46.39
35.639219	32.885117	-43.03
35.639433	32.885113	-40.08
35.639647	32.885108	-37.76
35.63986	32.885104	-35.95
35.640074	32.885099	-34.34
35.640287	32.885095	-32.46
35.640501	32.88509	-30.18
35.640714	32.885086	-28.01
35.640928	32.885081	-26.25
35.641142	32.885077	-25.08
35.641355	32.885072	-24.57
35.641569	32.885068	-24.67
35.641782	32.885063	-25.13
35.641996	32.885059	-25.44
35.64221	32.885054	-24.88
35.642423	32.88505	-22.27
35.642637	32.885045	-15.52
35.64285	32.885041	-7.19
35.643064	32.885036	-19.05
35.643278	32.885032	-29.4
35.643491	32.885027	-36.41
35.643705	32.885023	-40.81
35.643918	32.885018	-42.8
35.644132	32.885013	-42.91
35.644346	32.885009	-41.8
35.644559	32.885004	-40.16
35.644773	32.885	-38.45
35.644986	32.884995	-37.27
35.6452	32.884991	-37.13
35.645413	32.884986	-38.41
35.645627	32.884982	-41.1
35.645841	32.884977	-43.71
35.646054	32.884973	-43.49
35.646268	32.884968	-41.38
35.646481	32.884964	-38.11
35.646695	32.884959	-34.12
35.646909	32.884955	-29.7
35.647122	32.88495	-25.03
35.647336	32.884946	-20.27
35.647549	32.884941	-15.5
35.647763	32.884937	-10.82
35.647977	32.884932	-6.25
35.64819	32.884928	-1.83
35.648404	32.884923	2.43
35.648617	32.884919	6.55
35.648831	32.884914	10.53
35.599923	32.886121	-120.86
35.600136	32.886117	-115.91
35.60035	32.886112	-110.94
35.600564	32.886108	-105.94
35.600777	32.886104	-100.89
35.600991	32.886099	-95.78
35.601204	32.886095	-90.6
35.601418	32.88609	-85.34
35.601632	32.886086	-80.0
35.601845	32.886081	-74.59
35.602059	32.886077	-69.12
35.602272	32.886072	-63.63
35.602486	32.886068	-58.16
35.6027	32.886064	-52.77
35.602913	32.886059	-47.52
35.603127	32.886055	-42.46
35.60334	32.88605	-37.65
35.603554	32.886046	-33.12
35.603768	32.886041	-28.9
35.603981	32.886037	-25.01
35.604195	32.886032	-21.44
35.604408	32.886028	-18.15
35.604622	32.886023	-15.07
35.604836	32.886019	-12.08
35.605049	32.886015	-9.06
35.605263	32.88601	-5.89
35.605476	32.886006	-2.44
35.60569	32.886001	1.4
35.605904	32.885997	5.7
35.606117	32.885992	10.55
35.606331	32.885988	16.04
35.606544	32.885983	22.2
35.606758	32.885979	29.06
35.606972	32.885974	36.52
35.607185	32.88597	44.39
35.607399	32.885966	52.29
35.607612	32.885961	59.67
35.607826	32.885957	66.44
35.60804	32.885952	72.39
35.608253	32.885948	77.36
35.608467	32.885943	81.31
35.60868	32.885939	84.32
35.608894	32.885934	86.55
35.609108	32.88593	88.16
35.609321	32.885925	89.33
35.609535	32.885921	90.22
35.609748	32.885917	90.96
35.609962	32.885912	91.63
35.610176	32.885908	92.3
35.610389	32.885903	93.01
35.610603	32.885899	93.75
35.610816	32.885894	94.52
35.61103	32.88589	95.27
35.611244	32.885885	95.96
35.611457	32.885881	96.51
35.611671	32.885876	96.87
35.611884	32.885872	96.98
35.612098	32.885867	96.79
35.612312	32.885863	96.28
35.612525	32.885859	95.44
35.612739	32.885854	94.3
35.612952	32.88585	92.88
35.613166	32.885845	91.25
35.61338	32.885841	89.47
35.613593	32.885836	87.66
35.613807	32.885832	85.82
35.61402	32.885827	83.71
35.614234	32.885823	81.17
35.614448	32.885818	90.56
35.614661	32.885814	112.8
35.614875	32.885809	114.2
35.615088	32.885805	112.7
35.615302	32.8858	108.87
35.615516	32.885796	101.45
35.615729	32.885792	89.4
35.615943	32.885787	74.71
35.616156	32.885783	60.31
35.61637	32.885778	48.91
35.616584	32.885774	41.43
35.616797	32.885769	36.17
35.617011	32.885765	30.13
35.617224	32.88576	31.76
35.617438	32.885756	35.36
35.617652	32.885751	36.39
35.617865	32.885747	35.83
35.618079	32.885742	34.21
35.618292	32.885738	31.8
35.618506	32.885733	28.83
35.61872	32.885729	25.35
35.618933	32.885724	21.53
35.619147	32.88572	17.9
35.61936	32.885715	14.33
35.619574	32.885711	10.87
35.619788	32.885706	7.39
35.620001	32.885702	3.77
35.620215	32.885698	0.18
35.620428	32.885693	-3.15
35.620642	32.885689	-5.79
35.620856	32.885684	-7.53
35.621069	32.88568	-8.82
35.621283	32.885675	-10.0
35.621496	32.885671	-11.17
35.62171	32.885666	-12.4
35.621924	32.885662	-13.58
35.622137	32.885657	-12.79
35.622351	32.885653	-10.02
35.622564	32.885648	-17.52
35.622778	32.885644	-24.27
35.622991	32.885639	-30.25
35.623205	32.885635	-35.62
35.623419	32.88563	-40.41
35.623632	32.885626	-45.11
35.623846	32.885621	-50.4
35.624059	32.885617	-56.23
35.624273	32.885612	-62.25
35.624487	32.885608	-67.9
35.6247	32.885603	-72.17
35.624914	32.885599	-74.04
35.625127	32.885594	-74.07
35.625341	32.88559	-72.71
35.625555	32.885585	-70.24
35.625768	32.885581	-66.45
35.625982	32.885577	-60.92
35.626195	32.885572	-53.19
35.626409	32.885568	-42.68
35.626623	32.885563	-27.68
35.626836	32.885559	-8.88
35.62705	32.885554	-12.37
35.627263	32.88555	-12.84
35.627477	32.885545	-9.68
35.627691	32.885541	-5.16
35.627904	32.885536	-0.63
35.628118	32.885532	4.01
35.628331	32.885527	8.43
35.628545	32.885523	12.47
35.628759	32.885518	16.14
35.628972	32.885514	19.61
35.629186	32.885509	23.27
35.629399	32.885505	27.57
35.629613	32.8855	32.59
35.629827	32.885496	38.24
35.63004	32.885491	44.15
35.630254	32.885487	49.61
35.630467	32.885482	53.09
35.630681	32.885478	52.26
35.630895	32.885473	49.22
35.631108	32.885469	45.19
35.631322	32.885464	40.58
35.631535	32.88546	35.45
35.631749	32.885455	29.81
35.631962	32.885451	23.6
35.632176	32.885446	16.8
35.63239	32.885442	9.41
35.632603	32.885437	1.55
35.632817	32.885433	-6.45
35.63303	32.885428	-14.08
35.633244	32.885424	-20.8
35.633458	32.885419	-26.07
35.633671	32.885415	-29.58
35.633885	32.88541	-31.18
35.634098	32.885406	-30.82
35.634312	32.885401	-28.45
35.634526	32.885397	-24.3
35.634739	32.885392	-20.75
35.634953	32.885388	-29.09
35.635166	32.885383	-38.49
35.63538	32.885379	-44.81
35.635594	32.885374	-47.92
35.635807	32.88537	-48.81
35.636021	32.885365	-48.1
35.636234	32.885361	-46.28
35.636448	32.885356	-43.44
35.636662	32.885352	-39.87
35.636875	32.885347	-36.46
35.637089	32.885343	-33.85
35.637302	32.885338	-32.88
35.637516	32.885334	-33.56
35.63773	32.885329	-35.64
35.637943	32.885325	-39.1
35.638157	32.88532	-44.07
35.63837	32.885316	-50.43
35.638584	32.885311	-56.86
35.638797	32.885307	-54.43
35.639011	32.885302	-51.65
35.639225	32.885298	-49.01
35.639438	32.885293	-46.69
35.639652	32.885289	-45.05
35.639865	32.885284	-43.89
35.640079	32.88528	-42.85
35.640293	32.885275	-41.21
35.640506	32.88527	-38.7
35.64072	32.885266	-36.29
35.640933	32.885261	-34.22
35.641147	32.885257	-32.69
35.641361	32.885252	-31.81
35.641574	32.885248	-31.55
35.641788	32.885243	-31.79
35.642001	32.885239	-32.08
35.642215	32.885234	-32.1
35.642429	32.88523	-31.68
35.642642	32.885225	-28.3
35.642856	32.885221	-23.61
35.643069	32.885216	-37.57
35.643283	32.885212	-44.06
35.643497	32.885207	-48.09
35.64371	32.885203	-50.82
35.643924	32.885198	-51.55
35.644137	32.885194	-50.61
35.644351	32.885189	-48.61
35.644564	32.885185	-46.3
35.644778	32.88518	-43.91
35.644992	32.885176	-42.16
35.645205	32.885171	-41.57
35.645419	32.885167	-42.63
35.645632	32.885162	-45.9
35.645846	32.885158	-49.75
35.64606	32.885153	-48.97
35.646273	32.885148	-46.44
35.646487	32.885144	-42.9
35.6467	32.885139	-38.74
35.646914	32.885135	-34.17
35.647128	32.88513	-29.38
35.647341	32.885126	-24.48
35.647555	32.885121	-19.57
35.647768	32.885117	-14.72
35.647982	32.885112	-9.97
35.648196	32.885108	-5.35
35.648409	32.885103	-0.87
35.648623	32.885099	3.48
35.648836	32.885094	7.7
35.599928	32.886302	-121.88
35.600142	32.886297	-117.01
35.600355	32.886293	-112.11
35.600569	32.886288	-107.18
35.600782	32.886284	-102.2
35.600996	32.886279	-97.15
35.60121	32.886275	-92.01
35.601423	32.88627	-86.78
35.601637	32.886266	-81.44
35.60185	32.886262	-76.0
35.602064	32.886257	-70.49
35.602278	32.886253	-64.94
35.602491	32.886248	-59.4
35.602705	32.886244	-53.94
35.602918	32.886239	-48.64
35.603132	32.886235	-43.57
35.603346	32.88623	-38.79
35.603559	32.886226	-34.34
35.603773	32.886222	-30.28
35.603987	32.886217	-26.62
35.6042	32.886213	-23.36
35.604414	32.886208	-20.47
35.604627	32.886204	-17.85
35.604841	32.886199	-15.39
35.605055	32.886195	-12.91
35.605268	32.88619	-10.26
35.605482	32.886186	-7.29
35.605695	32.886181	-3.89
35.605909	32.886177	0.03
35.606123	32.886173	4.56
35.606336	32.886168	9.81
35.60655	32.886164	15.9
35.606763	32.886159	22.89
35.606977	32.886155	30.72
35.607191	32.88615	39.18
35.607404	32.886146	47.79
35.607618	32.886141	55.71
35.607831	32.886137	62.76
35.608045	32.886132	68.69
35.608259	32.886128	73.41
35.608472	32.886124	76.97
35.608686	32.886119	79.55
35.608899	32.886115	81.36
35.609113	32.88611	82.59
35.609327	32.886106	83.46
35.60954	32.886101	84.12
35.609754	32.886097	84.7
35.609967	32.886092	85.3
35.610181	32.886088	85.95
35.610395	32.886083	86.69
35.610608	32.886079	87.52
35.610822	32.886074	88.4
35.611035	32.88607	89.28
35.611249	32.886066	90.1
35.611463	32.886061	90.76
35.611676	32.886057	91.19
35.61189	32.886052	91.3
35.612103	32.886048	91.03
35.612317	32.886043	90.33
35.612531	32.886039	89.17
35.612744	32.886034	87.51
35.612958	32.88603	85.32
35.613171	32.886025	82.53
35.613385	32.886021	79.02
35.613598	32.886016	74.53
35.613812	32.886012	68.68
35.614026	32.886007	61.38
35.614239	32.886003	56.22
35.614453	32.885999	79.85
35.614666	32.885994	103.54
35.61488	32.88599	111.38
35.615094	32.885985	111.54
35.615307	32.885981	107.25
35.615521	32.885976	98.97
35.615734	32.885972	86.77
35.615948	32.885967	72.28
35.616162	32.885963	57.89
35.616375	32.885958	45.99
35.616589	32.885954	38.98
35.616802	32.885949	36.28
35.617016	32.885945	30.35
35.61723	32.88594	35.8
35.617443	32.885936	37.29
35.617657	32.885931	36.28
35.61787	32.885927	34.82
35.618084	32.885923	32.75
35.618298	32.885918	29.99
35.618511	32.885914	26.74
35.618725	32.885909	22.91
35.618938	32.885905	18.5
35.619152	32.8859	14.63
35.619366	32.885896	10.75
35.619579	32.885891	7.14
35.619793	32.885887	3.54
35.620006	32.885882	-0.44
35.62022	32.885878	-4.61
35.620434	32.885873	-8.96
35.620647	32.885869	-12.81
35.620861	32.885864	-15.54
35.621074	32.88586	-17.63
35.621288	32.885855	-19.37
35.621502	32.885851	-21.21
35.621715	32.885846	-23.23
35.621929	32.885842	-25.41
35.622142	32.885837	-26.4
35.622356	32.885833	-18.41
35.62257	32.885828	-30.27
35.622783	32.885824	-29.55
35.622997	32.88582	-32.19
35.62321	32.885815	-35.71
35.623424	32.885811	-38.86
35.623638	32.885806	-41.87
35.623851	32.885802	-45.57
35.624065	32.885797	-49.85
35.624278	32.885793	-54.52
35.624492	32.885788	-59.37
35.624706	32.885784	-63.45
35.624919	32.885779	-65.27
35.625133	32.885775	-66.03
35.625346	32.88577	-65.4
35.62556	32.885766	-61.63
35.625774	32.885761	-57.16
35.625987	32.885757	-51.87
35.626201	32.885752	-45.37
35.626414	32.885748	-37.86
35.626628	32.885743	-27.4
35.626842	32.885739	-9.06
35.627055	32.885734	-12.47
35.627269	32.88573	-9.12
35.627482	32.885725	-3.32
35.627696	32.885721	2.48
35.62791	32.885716	7.23
35.628123	32.885712	12.18
35.628337	32.885707	16.8
35.62855	32.885703	20.85
35.628764	32.885698	24.36
35.628977	32.885694	27.41
35.629191	32.885689	30.44
35.629405	32.885685	34.1
35.629618	32.88568	38.33
35.629832	32.885676	43.1
35.630045	32.885671	48.42
35.630259	32.885667	54.44
35.630473	32.885662	59.73
35.630686	32.885658	58.62
35.6309	32.885653	55.6
35.631113	32.885649	51.81
35.631327	32.885644	47.27
35.631541	32.88564	41.95
35.631754	32.885635	35.95
35.631968	32.885631	29.46
35.632181	32.885626	22.61
35.632395	32.885622	15.48
35.632609	32.885617	8.17
35.632822	32.885613	0.88
35.633036	32.885608	-6.08
35.633249	32.885604	-12.3
35.633463	32.885599	-17.4
35.633677	32.885595	-21.02
35.63389	32.88559	-22.92
35.634104	32.885586	-22.9
35.634317	32.885581	-20.96
35.634531	32.885577	-17.9
35.634745	32.885572	-16.58
35.634958	32.885568	-21.86
35.635172	32.885563	-29.29
35.635385	32.885559	-35.37
35.635599	32.885554	-39.13
35.635813	32.88555	-40.89
35.636026	32.885545	-41.16
35.63624	32.885541	-40.37
35.636453	32.885536	-38.71
35.636667	32.885532	-36.52
35.63688	32.885527	-34.43
35.637094	32.885523	-33.05
35.637308	32.885518	-32.97
35.637521	32.885514	-34.29
35.637735	32.885509	-36.89
35.637948	32.885505	-40.68
35.638162	32.8855	-45.48
35.638376	32.885496	-51.04
35.638589	32.885491	-58.21
35.638803	32.885487	-57.67
35.639016	32.885482	-57.27
35.63923	32.885478	-55.89
35.639444	32.885473	-54.24
35.639657	32.885469	-53.29
35.639871	32.885464	-52.74
35.640084	32.88546	-52.04
35.640298	32.885455	-50.67
35.640512	32.885451	-48.54
35.640725	32.885446	-46.17
35.640939	32.885442	-43.87
35.641152	32.885437	-41.83
35.641366	32.885433	-40.15
35.64158	32.885428	-38.75
35.641793	32.885424	-37.36
35.642007	32.885419	-35.4
35.64222	32.885415	-32.04
35.642434	32.88541	-26.27
35.642647	32.885406	-18.29
35.642861	32.885401	-26.03
35.643075	32.885397	-40.11
35.643288	32.885392	-49.08
35.643502	32.885387	-54.21
35.643715	32.885383	-56.97
35.643929	32.885378	-57.63
35.644143	32.885374	-56.65
35.644356	32.885369	-54.64
35.64457	32.885365	-52.22
35.644783	32.88536	-49.84
35.644997	32.885356	-48.06
35.645211	32.885351	-47.42
35.645424	32.885347	-48.26
35.645638	32.885342	-50.58
35.645851	32.885338	-52.88
35.646065	32.885333	-52.42
35.646279	32.885329	-50.12
35.646492	32.885324	-46.68
35.646706	32.88532	-42.54
35.646919	32.885315	-37.96
35.647133	32.885311	-33.13
35.647347	32.885306	-28.16
35.64756	32.885302	-23.16
35.647774	32.885297	-18.19
35.647987	32.885293	-13.3
35.648201	32.885288	-8.51
35.648414	32.885283	-3.84
35.648628	32.885279	0.72
35.648842	32.885274	5.16
35.599933	32.886482	-122.88
35.600147	32.886477	-118.11
35.600361	32.886473	-113.31
35.600574	32.886468	-108.47
35.600788	32.886464	-103.57
35.601001	32.88646	-98.6
35.601215	32.886455	-93.53
35.601429	32.886451	-88.34
35.601642	32.886446	-83.02
35.601856	32.886442	-77.58
35.602069	32.886437	-72.02
35.602283	32.886433	-66.4
35.602497	32.886428	-60.77
35.60271	32.886424	-55.22
35.602924	32.88642	-49.86
35.603137	32.886415	-44.76
35.603351	32.886411	-40.0
35.603565	32.886406	-35.62
35.603778	32.886402	-31.69
35.603992	32.886397	-28.24
35.604205	32.886393	-25.29
35.604419	32.886388	-22.81
35.604633	32.886384	-20.7
35.604846	32.886379	-18.81
35.60506	32.886375	-16.9
35.605273	32.886371	-14.78
35.605487	32.886366	-12.29
35.605701	32.886362	-9.31
35.605914	32.886357	-5.78
35.606128	32.886353	-1.6
35.606341	32.886348	3.36
35.606555	32.886344	9.29
35.606769	32.886339	16.34
35.606982	32.886335	24.51
35.607196	32.88633	33.55
35.607409	32.886326	42.92
35.607623	32.886322	51.64
35.607837	32.886317	59.12
35.60805	32.886313	65.05
35.608264	32.886308	69.45
35.608477	32.886304	72.51
35.608691	32.886299	74.54
35.608905	32.886295	75.81
35.609118	32.88629	76.59
35.609332	32.886286	77.08
35.609545	32.886281	77.48
35.609759	32.886277	77.88
35.609973	32.886273	78.38
35.610186	32.886268	79.01
35.6104	32.886264	79.78
35.610613	32.886259	80.68
35.610827	32.886255	81.68
35.611041	32.88625	82.7
35.611254	32.886246	83.67
35.611468	32.886241	84.46
35.611681	32.886237	84.98
35.611895	32.886232	85.12
35.612109	32.886228	84.81
35.612322	32.886223	83.97
35.612536	32.886219	82.57
35.612749	32.886215	80.54
35.612963	32.88621	77.82
35.613177	32.886206	74.32
35.61339	32.886201	69.93
35.613604	32.886197	64.59
35.613817	32.886192	58.6
35.614031	32.886188	53.63
35.614245	32.886183	55.06
35.614458	32.886179	72.07
35.614672	32.886174	90.65
35.614885	32.88617	100.55
35.615099	32.886165	102.88
35.615313	32.886161	99.69
35.615526	32.886156	92.12
35.61574	32.886152	81.0
35.615953	32.886147	67.82
35.616167	32.886143	54.51
35.616381	32.886139	42.98
35.616594	32.886134	34.59
35.616808	32.88613	28.55
35.617021	32.886125	22.57
35.617235	32.886121	27.9
35.617449	32.886116	31.28
35.617662	32.886112	31.85
35.617876	32.886107	30.98
35.618089	32.886103	29.14
35.618303	32.886098	26.51
35.618517	32.886094	23.25
35.61873	32.886089	19.42
35.618944	32.886085	15.19
35.619157	32.88608	11.14
35.619371	32.886076	7.17
35.619585	32.886071	3.34
35.619798	32.886067	-0.51
35.620012	32.886062	-4.63
35.620225	32.886058	-8.93
35.620439	32.886054	-13.27
35.620653	32.886049	-17.16
35.620866	32.886045	-20.11
35.62108	32.88604	-22.24
35.621293	32.886036	-23.69
35.621507	32.886031	-24.56
35.621721	32.886027	-24.55
35.621934	32.886022	-22.76
35.622148	32.886018	-17.32
35.622361	32.886013	-7.58
35.622575	32.886009	-18.71
35.622789	32.886004	-24.18
35.623002	32.886	-28.36
35.623216	32.885995	-32.0
35.623429	32.885991	-35.08
35.623643	32.885986	-37.62
35.623856	32.885982	-38.68
35.62407	32.885977	-39.86
35.624284	32.885973	-41.57
35.624497	32.885968	-43.56
35.624711	32.885964	-46.22
35.624924	32.885959	-50.36
35.625138	32.885955	-56.12
35.625352	32.88595	-58.72
35.625565	32.885946	-50.87
35.625779	32.885941	-43.02
35.625992	32.885937	-36.17
35.626206	32.885932	-28.98
35.62642	32.885928	-19.9
35.626633	32.885923	-6.49
35.626847	32.885919	11.05
35.62706	32.885914	6.39
35.627274	32.88591	5.17
35.627488	32.885906	7.8
35.627701	32.885901	11.9
35.627915	32.885897	16.11
35.628128	32.885892	20.56
35.628342	32.885888	25.03
35.628556	32.885883	28.83
35.628769	32.885879	32.07
35.628983	32.885874	34.64
35.629196	32.88587	36.98
35.62941	32.885865	40.18
35.629624	32.885861	43.69
35.629837	32.885856	47.54
35.630051	32.885852	51.75
35.630264	32.885847	57.46
35.630478	32.885843	64.49
35.630692	32.885838	62.44
35.630905	32.885834	59.92
35.631119	32.885829	56.9
35.631332	32.885825	52.74
35.631546	32.88582	47.41
35.63176	32.885816	41.21
35.631973	32.885811	34.61
35.632187	32.885807	27.9
35.6324	32.885802	21.21
35.632614	32.885798	14.56
35.632828	32.885793	8.03
35.633041	32.885789	1.77
35.633255	32.885784	-3.95
35.633468	32.88578	-8.88
35.633682	32.885775	-12.66
35.633896	32.885771	-15.09
35.634109	32.885766	-15.85
35.634323	32.885762	-14.74
35.634536	32.885757	-12.23
35.63475	32.885753	-10.93
35.634963	32.885748	-14.78
35.635177	32.885744	-20.8
35.635391	32.885739	-26.08
35.635604	32.885735	-29.71
35.635818	32.88573	-31.84
35.636031	32.885726	-32.87
35.636245	32.885721	-33.13
35.636459	32.885717	-32.85
35.636672	32.885712	-32.29
35.636886	32.885708	-31.86
35.637099	32.885703	-31.98
35.637313	32.885699	-33.06
35.637527	32.885694	-35.25
35.63774	32.88569	-38.6
35.637954	32.885685	-43.14
35.638167	32.885681	-48.87
35.638381	32.885676	-55.81
35.638595	32.885672	-63.79
35.638808	32.885667	-68.52
35.639022	32.885662	-67.38
35.639235	32.885658	-65.62
35.639449	32.885653	-64.14
35.639663	32.885649	-63.33
35.639876	32.885644	-62.9
35.64009	32.88564	-62.35
35.640303	32.885635	-61.24
35.640517	32.885631	-59.44
35.640731	32.885626	-57.18
35.640944	32.885622	-54.65
35.641158	32.885617	-52.03
35.641371	32.885613	-49.39
35.641585	32.885608	-46.64
35.641798	32.885604	-43.53
35.642012	32.885599	-39.65
35.642226	32.885595	-34.64
35.642439	32.88559	-28.87
35.642653	32.885586	-25.58
35.642866	32.885581	-31.98
35.64308	32.885577	-42.91
35.643294	32.885572	-51.85
35.643507	32.885568	-57.71
35.643721	32.885563	-60.96
35.643934	32.885559	-62.05
35.644148	32.885554	-61.5
35.644362	32.88555	-59.87
35.644575	32.885545	-57.75
35.644789	32.885541	-55.63
35.645002	32.885536	-54.0
35.645216	32.885532	-53.27
35.64543	32.885527	-53.6
35.645643	32.885523	-54.77
35.645857	32.885518	-55.7
35.64607	32.885513	-55.04
35.646284	32.885509	-52.88
35.646498	32.885504	-49.62
35.646711	32.8855	-45.61
35.646925	32.885495	-41.1
35.647138	32.885491	-36.3
35.647352	32.885486	-31.32
35.647565	32.885482	-26.27
35.647779	32.885477	-21.22
35.647993	32.885473	-16.22
35.648206	32.885468	-11.29
35.64842	32.885464	-6.46
35.648633	32.885459	-1.72
35.648847	32.885455	2.92
35.599939	32.886662	-123.86
35.600152	32.886658	-119.19
35.600366	32.886653	-114.51
35.600579	32.886649	-109.79
35.600793	32.886644	-105.01
35.601007	32.88664	-100.14
35.60122	32.886635	-95.16
35.601434	32.886631	-90.04
35.601647	32.886626	-84.77
35.601861	32.886622	-79.34
35.602075	32.886618	-73.75
35.602288	32.886613	-68.04
35.602502	32.886609	-62.3
35.602715	32.886604	-56.65
35.602929	32.8866	-51.2
35.603143	32.886595	-46.07
35.603356	32.886591	-41.32
35.60357	32.886586	-37.01
35.603783	32.886582	-33.19
35.603997	32.886578	-29.92
35.604211	32.886573	-27.26
35.604424	32.886569	-25.2
35.604638	32.886564	-23.64
35.604851	32.88656	-22.36
35.605065	32.886555	-21.06
35.605279	32.886551	-19.49
35.605492	32.886546	-17.43
35.605706	32.886542	-14.81
35.605919	32.886537	-11.62
35.606133	32.886533	-7.82
35.606347	32.886529	-3.21
35.60656	32.886524	2.48
35.606774	32.88652	9.51
35.606987	32.886515	17.98
35.607201	32.886511	27.65
35.607415	32.886506	38.0
35.607628	32.886502	47.73
35.607842	32.886497	55.67
35.608055	32.886493	61.49
35.608269	32.886488	65.38
35.608483	32.886484	67.8
35.608696	32.88648	69.16
35.60891	32.886475	69.83
35.609123	32.886471	70.08
35.609337	32.886466	70.18
35.609551	32.886462	70.28
35.609764	32.886457	70.5
35.609978	32.886453	70.91
35.610191	32.886448	71.51
35.610405	32.886444	72.3
35.610619	32.886439	73.28
35.610832	32.886435	74.39
35.611046	32.88643	75.58
35.611259	32.886426	76.72
35.611473	32.886422	77.69
35.611687	32.886417	78.34
35.6119	32.886413	78.56
35.612114	32.886408	78.26
35.612327	32.886404	77.39
35.612541	32.886399	75.9
35.612755	32.886395	73.75
35.612968	32.88639	70.89
35.613182	32.886386	67.31
35.613395	32.886381	63.04
35.613609	32.886377	58.3
35.613823	32.886372	53.79
35.614036	32.886368	51.36
35.61425	32.886363	54.99
35.614463	32.886359	66.45
35.614677	32.886355	79.57
35.614891	32.88635	88.26
35.615104	32.886346	91.25
35.615318	32.886341	89.15
35.615531	32.886337	82.83
35.615745	32.886332	73.29
35.615959	32.886328	61.83
35.616172	32.886323	49.99
35.616386	32.886319	39.19
35.616599	32.886314	30.37
35.616813	32.88631	23.54
35.617027	32.886305	19.02
35.61724	32.886301	21.51
35.617454	32.886296	24.41
35.617667	32.886292	25.7
35.617881	32.886287	25.49
35.618095	32.886283	24.12
35.618308	32.886278	21.83
35.618522	32.886274	18.83
35.618735	32.88627	15.26
35.618949	32.886265	11.33
35.619163	32.886261	7.36
35.619376	32.886256	3.43
35.61959	32.886252	-0.44
35.619803	32.886247	-4.33
35.620017	32.886243	-8.34
35.620231	32.886238	-12.39
35.620444	32.886234	-16.3
35.620658	32.886229	-19.7
35.620871	32.886225	-22.24
35.621085	32.88622	-23.84
35.621299	32.886216	-24.43
35.621512	32.886211	-23.89
35.621726	32.886207	-21.85
35.621939	32.886202	-17.75
35.622153	32.886198	-11.37
35.622367	32.886193	-5.47
35.62258	32.886189	-11.19
35.622794	32.886184	-17.17
35.623007	32.88618	-22.08
35.623221	32.886175	-25.93
35.623435	32.886171	-28.75
35.623648	32.886167	-30.4
35.623862	32.886162	-30.47
35.624075	32.886158	-29.71
35.624289	32.886153	-28.41
35.624503	32.886149	-27.23
35.624716	32.886144	-27.52
35.62493	32.88614	-32.19
35.625143	32.886135	-41.74
35.625357	32.886131	-44.3
35.625571	32.886126	-32.46
35.625784	32.886122	-23.3
35.625998	32.886117	-16.32
35.626211	32.886113	-9.43
35.626425	32.886108	-1.03
35.626639	32.886104	9.59
35.626852	32.886099	19.65
35.627066	32.886095	19.9
35.627279	32.88609	19.08
35.627493	32.886086	20.03
35.627707	32.886081	22.4
35.62792	32.886077	25.44
35.628134	32.886072	28.89
35.628347	32.886068	32.47
35.628561	32.886063	35.72
35.628775	32.886059	38.57
35.628988	32.886054	41.01
35.629202	32.88605	43.41
35.629415	32.886045	46.32
35.629629	32.886041	49.6
35.629843	32.886036	53.14
35.630056	32.886032	56.82
35.63027	32.886027	60.82
35.630483	32.886023	66.04
35.630697	32.886018	63.9
35.630911	32.886014	63.05
35.631124	32.886009	61.06
35.631338	32.886005	57.17
35.631551	32.886	51.77
35.631765	32.885996	45.4
35.631978	32.885991	38.81
35.632192	32.885987	32.39
35.632406	32.885982	26.24
35.632619	32.885978	20.35
35.632833	32.885973	14.63
35.633046	32.885969	9.12
35.63326	32.885964	3.98
35.633474	32.88596	-0.72
35.633687	32.885955	-4.56
35.633901	32.885951	-7.54
35.634114	32.885946	-9.23
35.634328	32.885942	-9.04
35.634542	32.885937	-6.14
35.634755	32.885933	-2.45
35.634969	32.885928	-7.1
35.635182	32.885924	-12.85
35.635396	32.885919	-17.22
35.63561	32.885915	-20.24
35.635823	32.88591	-22.33
35.636037	32.885906	-23.92
35.63625	32.885901	-25.21
35.636464	32.885897	-26.36
35.636678	32.885892	-27.48
35.636891	32.885888	-28.79
35.637105	32.885883	-30.49
35.637318	32.885879	-32.82
35.637532	32.885874	-35.98
35.637746	32.88587	-40.13
35.637959	32.885865	-45.42
35.638173	32.885861	-51.96
35.638386	32.885856	-59.68
35.6386	32.885852	-67.88
35.638814	32.885847	-74.02
35.639027	32.885843	-75.08
35.639241	32.885838	-74.65
35.639454	32.885834	-74.06
35.639668	32.885829	-73.77
35.639881	32.885825	-73.68
35.640095	32.88582	-73.45
35.640309	32.885816	-72.69
35.640522	32.885811	-71.22
35.640736	32.885807	-69.06
35.640949	32.885802	-66.33
35.641163	32.885798	-63.15
35.641377	32.885793	-59.61
35.64159	32.885789	-55.71
35.641804	32.885784	-51.37
35.642017	32.88578	-46.48
35.642231	32.885775	-41.27
35.642445	32.885771	-36.84
35.642658	32.885766	-35.6
35.642872	32.885761	-40.12
35.643085	32.885757	-47.92
35.643299	32.885752	-55.37
35.643513	32.885748	-60.92
35.643726	32.885743	-64.31
35.64394	32.885739	-65.76
35.644153	32.885734	-65.67
35.644367	32.88573	-64.52
35.644581	32.885725	-62.81
35.644794	32.885721	-61.01
35.645008	32.885716	-59.51
35.645221	32.885712	-58.62
35.645435	32.885707	-58.39
35.645648	32.885703	-58.56
35.645862	32.885698	-58.46
35.646076	32.885694	-57.38
35.646289	32.885689	-55.17
35.646503	32.885685	-52.0
35.646716	32.88568	-48.1
35.64693	32.885676	-43.69
35.647144	32.885671	-38.95
35.647357	32.885667	-33.99
35.647571	32.885662	-28.93
35.647784	32.885657	-23.83
35.647998	32.885653	-18.74
35.648212	32.885648	-13.7
35.648425	32.885644	-8.73
35.648639	32.885639	-3.83
35.648852	32.885635	1.0
35.599944	32.886842	-124.78
35.600157	32.886838	-120.26
35.600371	32.886833	-115.71
35.600585	32.886829	-111.13
35.600798	32.886824	-106.48
35.601012	32.88682	-101.75
35.601225	32.886816	-96.89
35.601439	32.886811	-91.89
35.601653	32.886807	-86.7
35.601866	32.886802	-81.3
35.60208	32.886798	-75.69
35.602294	32.886793	-69.9
35.602507	32.886789	-64.04
35.602721	32.886784	-58.26
35.602934	32.88678	-52.72
35.603148	32.886776	-47.56
35.603362	32.886771	-42.84
35.603575	32.886767	-38.59
35.603789	32.886762	-34.86
35.604002	32.886758	-31.73
35.604216	32.886753	-29.32
35.60443	32.886749	-27.68
35.604643	32.886744	-26.69
35.604857	32.88674	-26.09
35.60507	32.886735	-25.46
35.605284	32.886731	-24.41
35.605498	32.886727	-22.69
35.605711	32.886722	-20.3
35.605925	32.886718	-17.36
35.606138	32.886713	-13.9
35.606352	32.886709	-9.69
35.606566	32.886704	-4.32
35.606779	32.8867	2.64
35.606993	32.886695	11.42
35.607206	32.886691	21.66
35.60742	32.886686	33.57
35.607634	32.886682	44.31
35.607847	32.886678	52.49
35.608061	32.886673	57.89
35.608274	32.886669	61.03
35.608488	32.886664	62.64
35.608702	32.88666	63.26
35.608915	32.886655	63.29
35.609129	32.886651	63.02
35.609342	32.886646	62.7
35.609556	32.886642	62.53
35.60977	32.886637	62.6
35.609983	32.886633	62.93
35.610197	32.886629	63.51
35.61041	32.886624	64.32
35.610624	32.88662	65.36
35.610838	32.886615	66.61
35.611051	32.886611	67.98
35.611265	32.886606	69.34
35.611478	32.886602	70.53
35.611692	32.886597	71.36
35.611906	32.886593	71.72
35.612119	32.886588	71.51
35.612333	32.886584	70.71
35.612546	32.886579	69.29
35.61276	32.886575	67.26
35.612974	32.88657	64.62
35.613187	32.886566	61.44
35.613401	32.886562	57.91
35.613614	32.886557	54.41
35.613828	32.886553	51.66
35.614042	32.886548	50.81
35.614255	32.886544	53.93
35.614469	32.886539	61.38
35.614682	32.886535	70.12
35.614896	32.88653	76.58
35.61511	32.886526	79.15
35.615323	32.886521	77.65
35.615537	32.886517	72.52
35.61575	32.886512	64.58
35.615964	32.886508	54.9
35.616178	32.886503	44.66
35.616391	32.886499	34.99
35.616605	32.886495	26.73
35.616818	32.88649	20.35
35.617032	32.886486	16.56
35.617246	32.886481	16.94
35.617459	32.886477	18.51
35.617673	32.886472	19.52
35.617886	32.886468	19.49
35.6181	32.886463	18.43
35.618314	32.886459	16.49
35.618527	32.886454	13.82
35.618741	32.88645	10.61
35.618954	32.886445	7.04
35.619168	32.886441	3.32
35.619382	32.886436	-0.42
35.619595	32.886432	-4.14
35.619809	32.886427	-7.83
35.620022	32.886423	-11.5
35.620236	32.886418	-15.06
35.62045	32.886414	-18.32
35.620663	32.886409	-20.99
35.620877	32.886405	-22.8
35.62109	32.886401	-23.59
35.621304	32.886396	-23.21
35.621518	32.886392	-21.52
35.621731	32.886387	-18.35
35.621945	32.886383	-13.67
35.622158	32.886378	-8.25
35.622372	32.886374	-4.68
35.622586	32.886369	-7.09
35.622799	32.886365	-11.46
35.623013	32.88636	-15.77
35.623226	32.886356	-19.3
35.62344	32.886351	-21.77
35.623654	32.886347	-23.0
35.623867	32.886342	-22.86
35.624081	32.886338	-21.71
35.624294	32.886333	-19.93
35.624508	32.886329	-18.05
35.624722	32.886324	-16.71
35.624935	32.88632	-17.45
35.625149	32.886315	-26.89
35.625362	32.886311	-14.48
35.625576	32.886306	-6.39
35.62579	32.886302	-0.89
35.626003	32.886297	4.1
35.626217	32.886293	9.57
35.62643	32.886288	16.05
35.626644	32.886284	23.39
35.626857	32.886279	29.66
35.627071	32.886275	31.33
35.627285	32.88627	31.35
35.627498	32.886266	31.74
35.627712	32.886261	32.94
35.627925	32.886257	34.78
35.628139	32.886252	37.07
35.628353	32.886248	39.61
35.628566	32.886244	42.15
35.62878	32.886239	44.58
35.628993	32.886235	46.95
35.629207	32.88623	49.48
35.629421	32.886226	52.47
35.629634	32.886221	55.94
35.629848	32.886217	59.86
35.630061	32.886212	64.22
35.630275	32.886208	69.02
35.630489	32.886203	73.68
35.630702	32.886199	71.12
35.630916	32.886194	68.32
35.631129	32.88619	64.92
35.631343	32.886185	60.32
35.631557	32.886181	54.65
35.63177	32.886176	48.35
35.631984	32.886172	41.99
35.632197	32.886167	35.92
35.632411	32.886163	30.29
35.632625	32.886158	25.1
35.632838	32.886154	20.26
35.633052	32.886149	15.58
35.633265	32.886145	11.2
35.633479	32.88614	6.9
35.633693	32.886136	3.42
35.633906	32.886131	0.27
35.63412	32.886127	-2.1
35.634333	32.886122	-3.06
35.634547	32.886118	-0.04
35.634761	32.886113	8.18
35.634974	32.886109	-0.1
35.635188	32.886104	-5.79
35.635401	32.8861	-8.78
35.635615	32.886095	-10.87
35.635829	32.886091	-12.72
35.636042	32.886086	-14.78
35.636256	32.886082	-17.06
35.636469	32.886077	-19.59
35.636683	32.886073	-22.36
35.636897	32.886068	-25.35
35.63711	32.886064	-28.56
35.637324	32.886059	-32.09
35.637537	32.886054	-36.13
35.637751	32.88605	-40.92
35.637964	32.886045	-46.7
35.638178	32.886041	-53.64
35.638392	32.886036	-61.58
35.638605	32.886032	-69.76
35.638819	32.886027	-76.48
35.639032	32.886023	-80.22
35.639246	32.886018	-82.02
35.63946	32.886014	-82.98
35.639673	32.886009	-83.75
35.639887	32.886005	-84.44
35.6401	32.886	-84.86
35.640314	32.885996	-84.66
35.640528	32.885991	-83.62
35.640741	32.885987	-81.63
35.640955	32.885982	-78.74
35.641168	32.885978	-75.07
35.641382	32.885973	-70.81
35.641596	32.885969	-66.08
35.641809	32.885964	-60.99
35.642023	32.88596	-55.71
35.642236	32.885955	-50.74
35.64245	32.885951	-47.24
35.642664	32.885946	-46.48
35.642877	32.885942	-49.36
35.643091	32.885937	-54.63
35.643304	32.885933	-60.23
35.643518	32.885928	-64.82
35.643732	32.885924	-67.9
35.643945	32.885919	-69.41
35.644159	32.885915	-69.6
35.644372	32.88591	-68.82
35.644586	32.885906	-67.46
35.644799	32.885901	-65.91
35.645013	32.885897	-64.48
35.645227	32.885892	-63.37
35.64544	32.885887	-62.62
35.645654	32.885883	-62.02
35.645867	32.885878	-61.15
35.646081	32.885874	-59.6
35.646295	32.885869	-57.21
35.646508	32.885865	-54.02
35.646722	32.88586	-50.18
35.646935	32.885856	-45.85
35.647149	32.885851	-41.16
35.647363	32.885847	-36.23
35.647576	32.885842	-31.17
35.64779	32.885838	-26.03
35.648003	32.885833	-20.88
35.648217	32.885829	-15.74
35.648431	32.885824	-10.64
35.648644	32.88582	-5.59
35.648858	32.885815	-0.6
35.599949	32.887022	-125.64
35.600163	32.887018	-121.27
35.600376	32.887014	-116.89
35.60059	32.887009	-112.46
35.600804	32.887005	-107.98
35.601017	32.887	-103.41
35.601231	32.886996	-98.71
35.601444	32.886991	-93.86
35.601658	32.886987	-88.8
35.601872	32.886982	-83.48
35.602085	32.886978	-77.89
35.602299	32.886974	-72.02
35.602512	32.886969	-66.01
35.602726	32.886965	-60.07
35.60294	32.88696	-54.45
35.603153	32.886956	-49.3
35.603367	32.886951	-44.65
35.60358	32.886947	-40.49
35.603794	32.886942	-36.82
35.604008	32.886938	-33.78
35.604221	32.886934	-31.56
35.604435	32.886929	-30.31
35.604648	32.886925	-29.93
35.604862	32.88692	-30.09
35.605076	32.886916	-30.18
35.605289	32.886911	-29.62
35.605503	32.886907	-28.11
35.605716	32.886902	-25.72
35.60593	32.886898	-22.81
35.606144	32.886893	-19.62
35.606357	32.886889	-15.8
35.606571	32.886885	-10.77
35.606784	32.88688	-3.88
35.606998	32.886876	5.53
35.607212	32.886871	16.48
35.607425	32.886867	29.94
35.607639	32.886862	41.29
35.607852	32.886858	49.26
35.608066	32.886853	53.87
35.60828	32.886849	55.99
35.608493	32.886844	56.76
35.608707	32.88684	56.67
35.60892	32.886835	56.1
35.609134	32.886831	55.36
35.609348	32.886827	54.68
35.609561	32.886822	54.29
35.609775	32.886818	54.25
35.609988	32.886813	54.54
35.610202	32.886809	55.11
35.610416	32.886804	55.93
35.610629	32.8868	57.02
35.610843	32.886795	58.4
35.611056	32.886791	59.98
35.61127	32.886786	61.61
35.611484	32.886782	63.06
35.611697	32.886777	64.13
35.611911	32.886773	64.66
35.612124	32.886769	64.6
35.612338	32.886764	63.95
35.612552	32.88676	62.73
35.612765	32.886755	61.0
35.612979	32.886751	58.79
35.613192	32.886746	56.24
35.613406	32.886742	53.58
35.61362	32.886737	51.27
35.613833	32.886733	49.88
35.614047	32.886728	49.61
35.61426	32.886724	51.53
35.614474	32.886719	56.06
35.614688	32.886715	61.54
35.614901	32.88671	65.83
35.615115	32.886706	67.56
35.615328	32.886702	66.26
35.615542	32.886697	62.08
35.615756	32.886693	55.56
35.615969	32.886688	47.5
35.616183	32.886684	38.85
35.616396	32.886679	30.51
35.61661	32.886675	23.23
35.616824	32.88667	17.61
35.617037	32.886666	14.17
35.617251	32.886661	13.21
35.617464	32.886657	13.47
35.617678	32.886652	13.78
35.617892	32.886648	13.55
35.618105	32.886643	12.58
35.618319	32.886639	10.88
35.618532	32.886634	8.53
35.618746	32.88663	5.68
35.61896	32.886626	2.48
35.619173	32.886621	-0.9
35.619387	32.886617	-4.33
35.6196	32.886612	-7.73
35.619814	32.886608	-11.06
35.620028	32.886603	-14.23
35.620241	32.886599	-17.16
35.620455	32.886594	-19.66
35.620668	32.88659	-21.5
35.620882	32.886585	-22.48
35.621096	32.886581	-22.41
35.621309	32.886576	-21.19
35.621523	32.886572	-18.75
35.621736	32.886567	-15.1
35.62195	32.886563	-10.57
35.622164	32.886558	-6.07
35.622377	32.886554	-3.37
35.622591	32.886549	-4.23
35.622804	32.886545	-7.0
35.623018	32.88654	-10.25
35.623232	32.886536	-13.15
35.623445	32.886531	-15.28
35.623659	32.886527	-16.45
35.623872	32.886522	-16.64
35.624086	32.886518	-16.2
35.6243	32.886513	-15.64
35.624513	32.886509	-15.84
35.624727	32.886505	-18.05
35.62494	32.8865	-24.08
35.625154	32.886496	-33.1
35.625368	32.886491	-13.22
35.625581	32.886487	4.22
35.625795	32.886482	13.95
35.626008	32.886478	20.1
35.626222	32.886473	25.44
35.626436	32.886469	30.57
35.626649	32.886464	35.6
35.626863	32.88646	39.62
35.627076	32.886455	42.0
35.62729	32.886451	42.59
35.627504	32.886446	42.8
35.627717	32.886442	43.21
35.627931	32.886437	43.98
35.628144	32.886433	45.13
35.628358	32.886428	46.63
35.628572	32.886424	48.38
35.628785	32.886419	50.36
35.628999	32.886415	52.58
35.629212	32.88641	55.17
35.629426	32.886406	58.31
35.62964	32.886401	62.06
35.629853	32.886397	66.41
35.630067	32.886392	71.15
35.63028	32.886388	75.7
35.630494	32.886383	78.54
35.630708	32.886379	76.77
35.630921	32.886374	73.0
35.631135	32.88637	68.16
35.631348	32.886365	62.54
35.631562	32.886361	56.39
35.631776	32.886356	50.08
35.631989	32.886352	43.97
35.632203	32.886347	38.31
35.632416	32.886343	33.19
35.63263	32.886338	28.59
35.632844	32.886334	24.44
35.633057	32.886329	20.58
35.633271	32.886325	17.03
35.633484	32.88632	13.76
35.633698	32.886316	11.09
35.633912	32.886311	8.87
35.634125	32.886307	7.34
35.634339	32.886302	6.77
35.634552	32.886298	8.02
35.634766	32.886293	14.46
35.634979	32.886289	4.35
35.635193	32.886284	1.16
35.635407	32.88628	-0.01
35.63562	32.886275	-1.51
35.635834	32.886271	-3.33
35.636047	32.886266	-5.92
35.636261	32.886262	-9.09
35.636475	32.886257	-12.88
35.636688	32.886253	-17.13
35.636902	32.886248	-21.67
35.637115	32.886244	-26.24
35.637329	32.886239	-30.79
35.637543	32.886235	-35.5
35.637756	32.88623	-40.67
35.63797	32.886226	-46.65
35.638183	32.886221	-53.71
35.638397	32.886217	-61.76
35.638611	32.886212	-70.21
35.638824	32.886208	-77.92
35.639038	32.886203	-84.08
35.639251	32.886199	-88.03
35.639465	32.886194	-90.69
35.639679	32.88619	-92.85
35.639892	32.886185	-94.73
35.640106	32.886181	-96.17
35.640319	32.886176	-96.82
35.640533	32.886172	-96.39
35.640747	32.886167	-94.68
35.64096	32.886163	-91.7
35.641174	32.886158	-87.62
35.641387	32.886154	-82.77
35.641601	32.886149	-77.47
35.641815	32.886144	-71.99
35.642028	32.88614	-66.62
35.642242	32.886135	-61.94
35.642455	32.886131	-58.68
35.642669	32.886126	-57.65
35.642882	32.886122	-59.12
35.643096	32.886117	-62.38
35.64331	32.886113	-66.21
35.643523	32.886108	-69.61
35.643737	32.886104	-72.04
35.64395	32.886099	-73.33
35.644164	32.886095	-73.56
35.644378	32.88609	-72.95
35.644591	32.886086	-71.79
35.644805	32.886081	-70.37
35.645018	32.886077	-68.93
35.645232	32.886072	-67.6
35.645446	32.886068	-66.39
35.645659	32.886063	-65.18
35.645873	32.886059	-63.71
35.646086	32.886054	-61.72
35.6463	32.88605	-59.09
35.646514	32.886045	-55.81
35.646727	32.886041	-51.96
35.646941	32.886036	-47.66
35.647154	32.886031	-43.0
35.647368	32.886027	-38.09
35.647582	32.886022	-33.02
35.647795	32.886018	-27.85
35.648009	32.886013	-22.64
35.648222	32.886009	-17.41
35.648436	32.886004	-12.2
35.64865	32.886	-7.01
35.648863	32.885995	-1.86
35.599954	32.887203	-126.42
35.600168	32.887198	-122.23
35.600382	32.887194	-118.01
35.600595	32.887189	-113.77
35.600809	32.887185	-109.47
35.601022	32.88718	-105.09
35.601236	32.887176	-100.59
35.60145	32.887172	-95.93
35.601663	32.887167	-91.05
35.601877	32.887163	-85.89
35.60209	32.887158	-80.36
35.602304	32.887154	-74.45
35.602518	32.887149	-68.25
35.602731	32.887145	-62.13
35.602945	32.88714	-56.44
35.603158	32.887136	-51.37
35.603372	32.887132	-46.9
35.603586	32.887127	-42.9
35.603799	32.887123	-39.3
35.604013	32.887118	-36.26
35.604226	32.887114	-34.14
35.60444	32.887109	-33.21
35.604654	32.887105	-33.46
35.604867	32.8871	-34.47
35.605081	32.887096	-35.33
35.605294	32.887091	-35.23
35.605508	32.887087	-33.73
35.605722	32.887083	-31.02
35.605935	32.887078	-27.82
35.606149	32.887074	-24.78
35.606363	32.887069	-21.23
35.606576	32.887065	-16.42
35.60679	32.88706	-9.65
35.607003	32.887056	0.82
35.607217	32.887051	12.84
35.607431	32.887047	26.64
35.607644	32.887042	37.6
35.607858	32.887038	44.87
35.608071	32.887034	48.54
35.608285	32.887029	49.66
35.608499	32.887025	49.83
35.608712	32.88702	49.26
35.608926	32.887016	48.27
35.609139	32.887011	47.17
35.609353	32.887007	46.2
35.609567	32.887002	45.65
35.60978	32.886998	45.59
35.609994	32.886993	45.9
35.610207	32.886989	46.46
35.610421	32.886984	47.24
35.610635	32.88698	48.34
35.610848	32.886976	49.83
35.611062	32.886971	51.66
35.611275	32.886967	53.61
35.611489	32.886962	55.39
35.611703	32.886958	56.73
35.611916	32.886953	57.45
35.61213	32.886949	57.55
35.612343	32.886944	57.08
35.612557	32.88694	56.14
35.612771	32.886935	54.79
35.612984	32.886931	53.1
35.613198	32.886926	51.16
35.613411	32.886922	49.18
35.613625	32.886918	47.49
35.613839	32.886913	46.44
35.614052	32.886909	46.24
35.614266	32.886904	47.38
35.614479	32.8869	50.01
35.614693	32.886895	53.26
35.614907	32.886891	55.83
35.61512	32.886886	56.72
35.615334	32.886882	55.44
35.615547	32.886877	51.97
35.615761	32.886873	46.62
35.615975	32.886868	39.98
35.616188	32.886864	32.76
35.616402	32.886859	25.69
35.616615	32.886855	19.43
35.616829	32.88685	14.52
35.617043	32.886846	11.27
35.617256	32.886842	9.52
35.61747	32.886837	8.8
35.617683	32.886833	8.41
35.617897	32.886828	7.84
35.618111	32.886824	6.81
35.618324	32.886819	5.24
35.618538	32.886815	3.14
35.618751	32.88681	0.61
35.618965	32.886806	-2.22
35.619179	32.886801	-5.22
35.619392	32.886797	-8.26
35.619606	32.886792	-11.25
35.619819	32.886788	-14.09
35.620033	32.886783	-16.68
35.620247	32.886779	-18.91
35.62046	32.886774	-20.62
35.620674	32.88677	-21.62
35.620887	32.886765	-21.77
35.621101	32.886761	-20.93
35.621315	32.886756	-19.04
35.621528	32.886752	-16.13
35.621742	32.886748	-12.36
35.621955	32.886743	-8.14
