lon	lat	Vertical_down
35.64753	32.855547	73.64
35.647744	32.855543	62.68
35.647957	32.855538	51.58
35.648171	32.855534	40.42
35.648384	32.855529	29.25
35.648598	32.855525	18.13
35.648811	32.85552	7.08
35.649025	32.855516	-3.85
35.649238	32.855511	-14.66
35.649452	32.855507	-25.33
35.649665	32.855502	-35.87
35.649879	32.855498	-46.26
35.650092	32.855493	-56.51
35.650306	32.855489	-66.63
35.604403	32.856634	-91.03
35.604617	32.856629	-92.8
35.60483	32.856625	-94.6
35.605044	32.85662	-96.43
35.605257	32.856616	-98.3
35.605471	32.856611	-100.19
35.605684	32.856607	-102.11
35.605898	32.856602	-104.03
35.606112	32.856598	-105.95
35.606325	32.856594	-107.85
35.606539	32.856589	-109.69
35.606752	32.856585	-111.45
35.606966	32.85658	-113.08
35.607179	32.856576	-114.53
35.607393	32.856571	-115.76
35.607606	32.856567	-116.7
35.60782	32.856562	-117.32
35.608033	32.856558	-117.57
35.608247	32.856553	-117.45
35.60846	32.856549	-117.03
35.608674	32.856545	-116.46
35.608887	32.85654	-115.88
35.609101	32.856536	-115.43
35.609314	32.856531	-115.23
35.609528	32.856527	-115.35
35.609741	32.856522	-115.8
35.609955	32.856518	-116.58
35.610169	32.856513	-117.65
35.610382	32.856509	-118.95
35.610596	32.856504	-120.42
35.610809	32.8565	-121.99
35.611023	32.856496	-123.62
35.611236	32.856491	-125.29
35.61145	32.856487	-127.01
35.611663	32.856482	-128.8
35.611877	32.856478	-130.65
35.61209	32.856473	-132.54
35.612304	32.856469	-134.41
35.612517	32.856464	-136.12
35.612731	32.85646	-137.46
35.612944	32.856455	-138.2
35.613158	32.856451	-138.59
35.613371	32.856446	-138.88
35.613585	32.856442	-139.21
35.613799	32.856438	-139.61
35.614012	32.856433	-140.06
35.614226	32.856429	-140.49
35.614439	32.856424	-140.85
35.614653	32.85642	-141.07
35.614866	32.856415	-141.16
35.61508	32.856411	-141.16
35.615293	32.856406	-141.11
35.615507	32.856402	-141.1
35.61572	32.856397	-141.19
35.615934	32.856393	-141.36
35.616147	32.856388	-141.51
35.616361	32.856384	-141.41
35.616574	32.856379	-140.85
35.616788	32.856375	-139.92
35.617001	32.856371	-139.55
35.617215	32.856366	-141.36
35.617428	32.856362	-143.37
35.617642	32.856357	-144.54
35.617856	32.856353	-144.91
35.618069	32.856348	-144.81
35.618283	32.856344	-144.54
35.618496	32.856339	-144.26
35.61871	32.856335	-143.98
35.618923	32.85633	-143.68
35.619137	32.856326	-143.31
35.61935	32.856321	-142.87
35.619564	32.856317	-142.42
35.619777	32.856312	-142.12
35.619991	32.856308	-142.16
35.620204	32.856303	-142.8
35.620418	32.856299	-144.2
35.620631	32.856294	-146.03
35.620845	32.85629	-146.37
35.621058	32.856286	-141.57
35.621272	32.856281	-135.44
35.621486	32.856277	-130.15
35.621699	32.856272	-125.93
35.621913	32.856268	-122.72
35.622126	32.856263	-120.38
35.62234	32.856259	-118.63
35.622553	32.856254	-116.98
35.622767	32.85625	-114.84
35.62298	32.856245	-111.9
35.623194	32.856241	-108.11
35.623407	32.856236	-103.75
35.623621	32.856232	-99.3
35.623834	32.856227	-95.64
35.624048	32.856223	-94.25
35.624261	32.856218	-93.81
35.624475	32.856214	-93.58
35.624688	32.856209	-93.26
35.624902	32.856205	-92.71
35.625115	32.8562	-91.93
35.625329	32.856196	-91.02
35.625542	32.856191	-90.04
35.625756	32.856187	-88.98
35.62597	32.856182	-87.62
35.626183	32.856178	-85.64
35.626397	32.856174	-82.72
35.62661	32.856169	-78.74
35.626824	32.856165	-73.85
35.627037	32.85616	-68.43
35.627251	32.856156	-62.87
35.627464	32.856151	-57.49
35.627678	32.856147	-52.56
35.627891	32.856142	-48.21
35.628105	32.856138	-44.53
35.628318	32.856133	-41.6
35.628532	32.856129	-39.38
35.628745	32.856124	-37.71
35.628959	32.85612	-36.33
35.629172	32.856115	-34.88
35.629386	32.856111	-33.05
35.629599	32.856106	-30.58
35.629813	32.856102	-27.3
35.630027	32.856097	-23.11
35.63024	32.856093	-17.92
35.630454	32.856088	-11.6
35.630667	32.856084	-4.04
35.630881	32.856079	4.79
35.631094	32.856075	14.5
35.631308	32.85607	23.77
35.631521	32.856066	29.86
35.631735	32.856061	31.64
35.631948	32.856057	31.55
35.632162	32.856052	31.05
35.632375	32.856048	30.71
35.632589	32.856043	30.75
35.632802	32.856039	31.3
35.633016	32.856034	32.37
35.633229	32.85603	33.89
35.633443	32.856025	35.72
35.633656	32.856021	37.76
35.63387	32.856016	39.92
35.634083	32.856012	42.2
35.634297	32.856007	44.62
35.634511	32.856003	47.26
35.634724	32.855998	50.26
35.634938	32.855994	53.83
35.635151	32.855989	58.19
35.635365	32.855985	63.45
35.635578	32.85598	69.31
35.635792	32.855976	74.71
35.636005	32.855971	77.5
35.636219	32.855967	79.49
35.636432	32.855962	81.51
35.636646	32.855958	83.8
35.636859	32.855953	86.28
35.637073	32.855949	88.72
35.637286	32.855944	90.89
35.6375	32.85594	92.64
35.637713	32.855935	93.95
35.637927	32.855931	95.0
35.63814	32.855926	96.11
35.638354	32.855922	97.66
35.638567	32.855917	99.89
35.638781	32.855913	102.65
35.638994	32.855908	105.4
35.639208	32.855904	107.35
35.639422	32.855899	108.23
35.639635	32.855895	109.55
35.639849	32.85589	115.03
35.640062	32.855886	120.81
35.640276	32.855881	124.91
35.640489	32.855877	127.23
35.640703	32.855872	128.44
35.640916	32.855868	129.39
35.64113	32.855863	130.8
35.641343	32.855859	133.06
35.641557	32.855854	136.12
35.64177	32.85585	139.73
35.641984	32.855845	143.6
35.642197	32.855841	147.52
35.642411	32.855836	151.34
35.642624	32.855832	154.94
35.642838	32.855827	158.22
35.643051	32.855823	161.1
35.643265	32.855818	163.52
35.643478	32.855814	165.44
35.643692	32.855809	166.79
35.643905	32.855805	167.55
35.644119	32.8558	167.67
35.644333	32.855795	167.12
35.644546	32.855791	165.86
35.64476	32.855786	163.87
35.644973	32.855782	161.11
35.645187	32.855777	157.58
35.6454	32.855773	153.24
35.645614	32.855768	148.11
35.645827	32.855764	142.2
35.646041	32.855759	135.52
35.646254	32.855755	128.11
35.646468	32.85575	120.03
35.646681	32.855746	111.33
35.646895	32.855741	102.08
35.647108	32.855737	92.36
35.647322	32.855732	82.25
35.647535	32.855728	71.84
35.647749	32.855723	61.2
35.647962	32.855719	50.41
35.648176	32.855714	39.54
35.648389	32.85571	28.63
35.648603	32.855705	17.75
35.648816	32.855701	6.92
35.64903	32.855696	-3.83
35.649244	32.855692	-14.48
35.649457	32.855687	-25.01
35.649671	32.855682	-35.42
35.649884	32.855678	-45.7
35.604409	32.856814	-90.04
35.604622	32.856809	-91.79
35.604836	32.856805	-93.59
35.605049	32.8568	-95.42
35.605263	32.856796	-97.3
35.605476	32.856792	-99.21
35.60569	32.856787	-101.16
35.605903	32.856783	-103.13
35.606117	32.856778	-105.1
35.60633	32.856774	-107.07
35.606544	32.856769	-109.01
35.606757	32.856765	-110.87
35.606971	32.85676	-112.63
35.607184	32.856756	-114.21
35.607398	32.856751	-115.56
35.607611	32.856747	-116.6
35.607825	32.856743	-117.29
35.608039	32.856738	-117.53
35.608252	32.856734	-117.29
35.608466	32.856729	-116.68
35.608679	32.856725	-115.87
35.608893	32.85672	-115.09
35.609106	32.856716	-114.5
35.60932	32.856711	-114.25
35.609533	32.856707	-114.39
35.609747	32.856702	-114.92
35.60996	32.856698	-115.81
35.610174	32.856694	-117.0
35.610387	32.856689	-118.4
35.610601	32.856685	-119.94
35.610814	32.85668	-121.56
35.611028	32.856676	-123.2
35.611241	32.856671	-124.87
35.611455	32.856667	-126.58
35.611669	32.856662	-128.36
35.611882	32.856658	-130.26
35.612096	32.856653	-132.29
35.612309	32.856649	-134.43
35.612523	32.856645	-136.55
35.612736	32.85664	-138.33
35.61295	32.856636	-139.2
35.613163	32.856631	-139.72
35.613377	32.856627	-140.15
35.61359	32.856622	-140.62
35.613804	32.856618	-141.13
35.614017	32.856613	-141.66
35.614231	32.856609	-142.14
35.614444	32.856604	-142.52
35.614658	32.8566	-142.77
35.614871	32.856595	-142.88
35.615085	32.856591	-142.89
35.615299	32.856586	-142.84
35.615512	32.856582	-142.79
35.615726	32.856578	-142.78
35.615939	32.856573	-142.8
35.616153	32.856569	-142.77
35.616366	32.856564	-142.59
35.61658	32.85656	-142.19
35.616793	32.856555	-141.7
35.617007	32.856551	-141.65
35.61722	32.856546	-142.77
35.617434	32.856542	-144.16
35.617647	32.856537	-145.2
35.617861	32.856533	-145.73
35.618074	32.856528	-145.88
35.618288	32.856524	-145.8
35.618501	32.856519	-145.62
35.618715	32.856515	-145.39
35.618928	32.856511	-145.12
35.619142	32.856506	-144.81
35.619356	32.856502	-144.49
35.619569	32.856497	-144.22
35.619783	32.856493	-144.11
35.619996	32.856488	-144.28
35.62021	32.856484	-144.82
35.620423	32.856479	-145.68
35.620637	32.856475	-146.36
35.62085	32.85647	-145.67
35.621064	32.856466	-142.08
35.621277	32.856461	-137.21
35.621491	32.856457	-132.41
35.621704	32.856452	-128.21
35.621918	32.856448	-124.75
35.622131	32.856443	-121.97
35.622345	32.856439	-119.67
35.622558	32.856434	-117.47
35.622772	32.85643	-115.02
35.622985	32.856425	-112.07
35.623199	32.856421	-108.61
35.623413	32.856417	-104.85
35.623626	32.856412	-101.17
35.62384	32.856408	-98.17
35.624053	32.856403	-96.42
35.624267	32.856399	-95.47
35.62448	32.856394	-94.86
35.624694	32.85639	-94.3
35.624907	32.856385	-93.65
35.625121	32.856381	-92.84
35.625334	32.856376	-91.89
35.625548	32.856372	-90.8
35.625761	32.856367	-89.51
35.625975	32.856363	-87.87
35.626188	32.856358	-85.65
35.626402	32.856354	-82.67
35.626615	32.856349	-78.87
35.626829	32.856345	-74.34
35.627042	32.85634	-69.33
35.627256	32.856336	-64.14
35.62747	32.856331	-59.03
35.627683	32.856327	-54.22
35.627897	32.856322	-49.85
35.62811	32.856318	-46.02
35.628324	32.856313	-42.76
35.628537	32.856309	-40.03
35.628751	32.856304	-37.72
35.628964	32.8563	-35.6
35.629178	32.856295	-33.4
35.629391	32.856291	-30.88
35.629605	32.856286	-27.8
35.629818	32.856282	-24.0
35.630032	32.856277	-19.37
35.630245	32.856273	-13.82
35.630459	32.856268	-7.28
35.630672	32.856264	0.23
35.630886	32.856259	8.52
35.631099	32.856255	17.05
35.631313	32.85625	24.69
35.631527	32.856246	30.05
35.63174	32.856242	32.57
35.631954	32.856237	33.33
35.632167	32.856233	33.34
35.632381	32.856228	33.24
35.632594	32.856224	33.35
35.632808	32.856219	33.82
35.633021	32.856215	34.73
35.633235	32.85621	36.02
35.633448	32.856206	37.64
35.633662	32.856201	39.49
35.633875	32.856197	41.53
35.634089	32.856192	43.75
35.634302	32.856188	46.17
35.634516	32.856183	48.87
35.634729	32.856179	51.96
35.634943	32.856174	55.58
35.635156	32.85617	59.82
35.63537	32.856165	64.68
35.635583	32.856161	69.83
35.635797	32.856156	74.49
35.636011	32.856152	77.18
35.636224	32.856147	79.13
35.636438	32.856143	80.93
35.636651	32.856138	82.81
35.636865	32.856134	84.76
35.637078	32.856129	86.65
35.637292	32.856125	88.36
35.637505	32.85612	89.78
35.637719	32.856116	90.93
35.637932	32.856111	91.93
35.638146	32.856107	93.0
35.638359	32.856102	94.37
35.638573	32.856098	96.16
35.638786	32.856093	98.26
35.639	32.856088	100.4
35.639213	32.856084	102.24
35.639427	32.856079	103.82
35.63964	32.856075	105.78
35.639854	32.85607	109.67
35.640067	32.856066	114.18
35.640281	32.856061	118.07
35.640494	32.856057	120.98
35.640708	32.856052	123.16
35.640922	32.856048	125.09
35.641135	32.856043	127.25
35.641349	32.856039	129.94
35.641562	32.856034	133.19
35.641776	32.85603	136.84
35.641989	32.856025	140.72
35.642203	32.856021	144.65
35.642416	32.856016	148.46
35.64263	32.856012	152.05
35.642843	32.856007	155.31
35.643057	32.856003	158.16
35.64327	32.855998	160.54
35.643484	32.855994	162.39
35.643697	32.855989	163.67
35.643911	32.855985	164.34
35.644124	32.85598	164.36
35.644338	32.855976	163.71
35.644551	32.855971	162.35
35.644765	32.855967	160.27
35.644978	32.855962	157.44
35.645192	32.855958	153.86
35.645405	32.855953	149.51
35.645619	32.855949	144.41
35.645833	32.855944	138.56
35.646046	32.85594	132.0
35.64626	32.855935	124.75
35.646473	32.855931	116.86
35.646687	32.855926	108.39
35.6469	32.855921	99.4
35.647114	32.855917	89.97
35.647327	32.855912	80.16
35.647541	32.855908	70.05
35.647754	32.855903	59.72
35.647968	32.855899	49.22
35.648181	32.855894	38.63
35.648395	32.85589	27.98
35.648608	32.855885	17.33
35.648822	32.855881	6.71
35.649035	32.855876	-3.84
35.649249	32.855872	-14.32
35.649462	32.855867	-24.7
35.649676	32.855863	-34.97
35.604414	32.856994	-88.9
35.604627	32.85699	-90.62
35.604841	32.856985	-92.39
35.605054	32.856981	-94.21
35.605268	32.856976	-96.08
35.605481	32.856972	-98.0
35.605695	32.856967	-99.96
35.605909	32.856963	-101.96
35.606122	32.856958	-103.99
35.606336	32.856954	-106.02
35.606549	32.85695	-108.03
35.606763	32.856945	-110.0
35.606976	32.856941	-111.88
35.60719	32.856936	-113.6
35.607403	32.856932	-115.09
35.607617	32.856927	-116.24
35.60783	32.856923	-117.06
35.608044	32.856918	-117.31
35.608257	32.856914	-116.93
35.608471	32.856909	-116.06
35.608684	32.856905	-114.97
35.608898	32.856901	-113.94
35.609111	32.856896	-113.22
35.609325	32.856892	-112.94
35.609539	32.856887	-113.15
35.609752	32.856883	-113.82
35.609966	32.856878	-114.9
35.610179	32.856874	-116.27
35.610393	32.856869	-117.82
35.610606	32.856865	-119.47
35.61082	32.85686	-121.14
35.611033	32.856856	-122.78
35.611247	32.856852	-124.4
35.61146	32.856847	-126.01
35.611674	32.856843	-127.68
35.611887	32.856838	-129.48
35.612101	32.856834	-131.5
35.612314	32.856829	-133.75
35.612528	32.856825	-136.13
35.612741	32.85682	-138.29
35.612955	32.856816	-139.39
35.613169	32.856811	-140.18
35.613382	32.856807	-140.92
35.613596	32.856802	-141.68
35.613809	32.856798	-142.45
35.614023	32.856794	-143.16
35.614236	32.856789	-143.78
35.61445	32.856785	-144.25
35.614663	32.85678	-144.55
35.614877	32.856776	-144.69
35.61509	32.856771	-144.7
35.615304	32.856767	-144.63
35.615517	32.856762	-144.53
35.615731	32.856758	-144.46
35.615944	32.856753	-144.41
35.616158	32.856749	-144.37
35.616371	32.856744	-144.3
35.616585	32.85674	-144.18
35.616799	32.856735	-144.08
35.617012	32.856731	-144.19
35.617226	32.856726	-144.84
35.617439	32.856722	-145.72
35.617653	32.856718	-146.48
35.617866	32.856713	-146.97
35.61808	32.856709	-147.18
35.618293	32.856704	-147.2
35.618507	32.8567	-147.08
35.61872	32.856695	-146.89
35.618934	32.856691	-146.65
35.619147	32.856686	-146.38
35.619361	32.856682	-146.12
35.619574	32.856677	-145.91
35.619788	32.856673	-145.81
35.620001	32.856668	-145.86
35.620215	32.856664	-146.04
35.620428	32.856659	-146.18
35.620642	32.856655	-145.89
35.620856	32.85665	-144.56
35.621069	32.856646	-141.86
35.621283	32.856642	-138.06
35.621496	32.856637	-133.93
35.62171	32.856633	-129.99
35.621923	32.856628	-126.48
35.622137	32.856624	-123.44
35.62235	32.856619	-120.76
35.622564	32.856615	-118.21
35.622777	32.85661	-115.58
35.622991	32.856606	-112.72
35.623204	32.856601	-109.62
35.623418	32.856597	-106.44
35.623631	32.856592	-103.44
35.623845	32.856588	-100.92
35.624058	32.856583	-98.96
35.624272	32.856579	-97.56
35.624485	32.856574	-96.53
35.624699	32.85657	-95.65
35.624913	32.856565	-94.77
35.625126	32.856561	-93.81
35.62534	32.856556	-92.73
35.625553	32.856552	-91.48
35.625767	32.856547	-89.99
35.62598	32.856543	-88.14
35.626194	32.856538	-85.77
35.626407	32.856534	-82.78
35.626621	32.856529	-79.13
35.626834	32.856525	-74.89
35.627048	32.856521	-70.23
35.627261	32.856516	-65.36
35.627475	32.856512	-60.48
35.627688	32.856507	-55.79
35.627902	32.856503	-51.4
35.628115	32.856498	-47.39
35.628329	32.856494	-43.81
35.628542	32.856489	-40.62
35.628756	32.856485	-37.71
35.62897	32.85648	-34.91
35.629183	32.856476	-32.04
35.629397	32.856471	-28.88
35.62961	32.856467	-25.25
35.629824	32.856462	-21.0
35.630037	32.856458	-16.03
35.630251	32.856453	-10.29
35.630464	32.856449	-3.76
35.630678	32.856444	3.46
35.630891	32.85644	11.1
35.631105	32.856435	18.65
35.631318	32.856431	25.28
35.631532	32.856426	30.11
35.631745	32.856422	32.96
35.631959	32.856417	34.35
35.632172	32.856413	34.92
35.632386	32.856408	35.19
35.632599	32.856404	35.5
35.632813	32.856399	36.03
35.633027	32.856395	36.87
35.63324	32.85639	38.03
35.633454	32.856386	39.48
35.633667	32.856381	41.17
35.633881	32.856377	43.09
35.634094	32.856372	45.22
35.634308	32.856368	47.58
35.634521	32.856363	50.23
35.634735	32.856359	53.23
35.634948	32.856354	56.66
35.635162	32.85635	60.51
35.635375	32.856345	64.7
35.635589	32.856341	68.93
35.635802	32.856336	72.74
35.636016	32.856332	75.51
35.636229	32.856327	77.65
35.636443	32.856323	79.48
35.636656	32.856318	81.19
35.63687	32.856314	82.83
35.637083	32.856309	84.37
35.637297	32.856305	85.74
35.637511	32.8563	86.92
35.637724	32.856296	87.91
35.637938	32.856291	88.83
35.638151	32.856287	89.8
35.638365	32.856282	90.99
35.638578	32.856278	92.48
35.638792	32.856273	94.22
35.639005	32.856269	96.12
35.639219	32.856264	98.05
35.639432	32.85626	100.04
35.639646	32.856255	102.17
35.639859	32.856251	105.28
35.640073	32.856246	108.97
35.640286	32.856242	112.57
35.6405	32.856237	115.76
35.640713	32.856233	118.57
35.640927	32.856228	121.23
35.64114	32.856224	124.02
35.641354	32.856219	127.13
35.641567	32.856215	130.61
35.641781	32.85621	134.37
35.641994	32.856206	138.28
35.642208	32.856201	142.21
35.642422	32.856197	146.01
35.642635	32.856192	149.56
35.642849	32.856188	152.78
35.643062	32.856183	155.57
35.643276	32.856179	157.88
35.643489	32.856174	159.64
35.643703	32.856169	160.82
35.643916	32.856165	161.38
35.64413	32.85616	161.29
35.644343	32.856156	160.52
35.645197	32.856138	150.34
35.645411	32.856133	145.98
35.645624	32.856129	140.89
35.645838	32.856124	135.1
35.646051	32.85612	128.63
35.646265	32.856115	121.52
35.646478	32.856111	113.81
35.646692	32.856106	105.55
35.646905	32.856102	96.81
35.647119	32.856097	87.64
35.647333	32.856093	78.11
35.647546	32.856088	68.28
35.64776	32.856084	58.23
35.647973	32.856079	48.01
35.648187	32.856075	37.68
35.6484	32.85607	27.29
35.648614	32.856066	16.87
35.648827	32.856061	6.47
35.649041	32.856056	-3.89
35.604419	32.857174	-87.6
35.604633	32.85717	-89.29
35.604846	32.857165	-91.02
35.60506	32.857161	-92.81
35.605273	32.857156	-94.66
35.605487	32.857152	-96.56
35.6057	32.857148	-98.52
35.605914	32.857143	-100.53
35.606127	32.857139	-102.57
35.606341	32.857134	-104.65
35.606554	32.85713	-106.73
35.606768	32.857125	-108.78
35.606981	32.857121	-110.76
35.607195	32.857116	-112.62
35.607409	32.857112	-114.26
35.607622	32.857107	-115.54
35.607836	32.857103	-116.57
35.608049	32.857099	-116.87
35.608263	32.857094	-116.31
35.608476	32.85709	-115.1
35.60869	32.857085	-113.66
35.608903	32.857081	-112.37
35.609117	32.857076	-111.53
35.60933	32.857072	-111.27
35.609544	32.857067	-111.63
35.609757	32.857063	-112.54
35.609971	32.857058	-113.88
35.610184	32.857054	-115.51
35.610398	32.85705	-117.28
35.610611	32.857045	-119.08
35.610825	32.857041	-120.81
35.611039	32.857036	-122.44
35.611252	32.857032	-123.94
35.611466	32.857027	-125.37
35.611679	32.857023	-126.8
35.611893	32.857018	-128.34
35.612106	32.857014	-130.12
35.61232	32.857009	-132.24
35.612533	32.857005	-134.67
35.612747	32.857001	-137.02
35.61296	32.856996	-138.58
35.613174	32.856992	-139.91
35.613387	32.856987	-141.19
35.613601	32.856983	-142.43
35.613814	32.856978	-143.58
35.614028	32.856974	-144.6
35.614241	32.856969	-145.43
35.614455	32.856965	-146.04
35.614669	32.85696	-146.42
35.614882	32.856956	-146.58
35.615096	32.856951	-146.58
35.615309	32.856947	-146.46
35.615523	32.856942	-146.31
35.615736	32.856938	-146.18
35.61595	32.856934	-146.11
35.616163	32.856929	-146.13
35.616377	32.856925	-146.23
35.61659	32.85692	-146.42
35.616804	32.856916	-146.67
35.617017	32.856911	-146.86
35.617231	32.856907	-147.18
35.617444	32.856902	-147.66
35.617658	32.856898	-148.16
35.617871	32.856893	-148.53
35.618085	32.856889	-148.72
35.618299	32.856884	-148.76
35.618512	32.85688	-148.67
35.618726	32.856875	-148.49
35.618939	32.856871	-148.25
35.619153	32.856866	-147.98
35.619366	32.856862	-147.72
35.61958	32.856858	-147.48
35.619793	32.856853	-147.3
35.620007	32.856849	-147.13
35.62022	32.856844	-146.91
35.620434	32.85684	-146.46
35.620647	32.856835	-145.56
35.620861	32.856831	-144.13
35.621074	32.856826	-141.81
35.621288	32.856822	-138.65
35.621501	32.856817	-135.05
35.621715	32.856813	-131.39
35.621928	32.856808	-127.93
35.622142	32.856804	-124.75
35.622356	32.856799	-121.84
35.622569	32.856795	-119.1
35.622783	32.85679	-116.39
35.622996	32.856786	-113.64
35.62321	32.856781	-110.87
35.623423	32.856777	-108.17
35.623637	32.856772	-105.69
35.62385	32.856768	-103.5
35.624064	32.856764	-101.43
35.624277	32.856759	-99.72
35.624491	32.856755	-98.33
35.624704	32.85675	-97.12
35.624918	32.856746	-95.99
35.625131	32.856741	-94.83
35.625345	32.856737	-93.58
35.625558	32.856732	-92.15
35.625772	32.856728	-90.48
35.625985	32.856723	-88.47
35.626199	32.856719	-86.01
35.626413	32.856714	-83.04
35.626626	32.85671	-79.52
35.62684	32.856705	-75.52
35.627053	32.856701	-71.13
35.627267	32.856696	-66.52
35.62748	32.856692	-61.84
35.627694	32.856687	-57.23
35.627907	32.856683	-52.8
35.628121	32.856678	-48.63
35.628334	32.856674	-44.73
35.628548	32.856669	-41.1
35.628761	32.856665	-37.66
35.628975	32.85666	-34.28
35.629188	32.856656	-30.81
35.629402	32.856651	-27.1
35.629615	32.856647	-23.0
35.629829	32.856642	-18.39
35.630042	32.856638	-13.2
35.630256	32.856633	-7.4
35.63047	32.856629	-1.02
35.630683	32.856624	5.81
35.630897	32.85662	12.81
35.63111	32.856615	19.57
35.631324	32.856611	25.51
35.631537	32.856606	29.97
35.631751	32.856602	32.99
35.631964	32.856597	34.83
35.632178	32.856593	35.89
35.632391	32.856588	36.56
35.632605	32.856584	37.13
35.632818	32.856579	37.79
35.633032	32.856575	38.66
35.633245	32.85657	39.76
35.633459	32.856566	41.11
35.633672	32.856561	42.69
35.633886	32.856557	44.48
35.634099	32.856552	46.49
35.634313	32.856548	48.74
35.634527	32.856543	51.24
35.63474	32.856539	54.04
35.634954	32.856534	57.14
35.635167	32.85653	60.49
35.635381	32.856525	63.96
35.635594	32.856521	67.3
35.635808	32.856516	70.29
35.636021	32.856512	73.15
35.636235	32.856507	75.49
35.636448	32.856503	77.42
35.636662	32.856498	79.08
35.636875	32.856494	80.56
35.637089	32.856489	81.87
35.637302	32.856485	83.03
35.637516	32.85648	84.01
35.637729	32.856476	84.88
35.637943	32.856471	85.69
35.638156	32.856467	86.55
35.63837	32.856462	87.58
35.638583	32.856458	88.85
35.638797	32.856453	90.38
35.639011	32.856449	92.15
35.639224	32.856444	94.15
35.639438	32.85644	96.32
35.639651	32.856435	98.52
35.639865	32.856431	101.29
35.640078	32.856426	104.56
35.640292	32.856422	108.0
35.640505	32.856417	111.37
35.640719	32.856413	114.6
35.640932	32.856408	117.8
35.641146	32.856404	121.09
35.641359	32.856399	124.59
35.641573	32.856395	128.31
35.641786	32.85639	132.21
35.642	32.856386	136.18
35.642213	32.856381	140.13
35.642427	32.856377	143.91
35.64264	32.856372	147.43
35.642854	32.856368	150.59
35.643067	32.856363	153.31
35.643281	32.856359	155.52
35.643494	32.856354	157.18
35.643708	32.85635	158.25
35.643922	32.856345	158.68
35.644135	32.856341	158.46
35.604424	32.857354	-86.15
35.604638	32.85735	-87.78
35.604851	32.857346	-89.47
35.605065	32.857341	-91.21
35.605278	32.857337	-93.02
35.605492	32.857332	-94.88
35.605706	32.857328	-96.82
35.605919	32.857323	-98.81
35.606133	32.857319	-100.86
35.606346	32.857314	-102.95
35.60656	32.85731	-105.06
35.606773	32.857306	-107.16
35.606987	32.857301	-109.22
35.6072	32.857297	-111.17
35.607414	32.857292	-112.95
35.607627	32.857288	-114.44
35.607841	32.857283	-115.72
35.608054	32.857279	-116.09
35.608268	32.857274	-115.29
35.608481	32.85727	-113.67
35.608695	32.857265	-111.84
35.608908	32.857261	-110.3
35.609122	32.857257	-109.39
35.609336	32.857252	-109.26
35.609549	32.857248	-109.88
35.609763	32.857243	-111.13
35.609976	32.857239	-112.84
35.61019	32.857234	-114.81
35.610403	32.85723	-116.86
35.610617	32.857225	-118.85
35.61083	32.857221	-120.67
35.611044	32.857216	-122.27
35.611257	32.857212	-123.63
35.611471	32.857207	-124.8
35.611684	32.857203	-125.87
35.611898	32.857199	-126.98
35.612111	32.857194	-128.3
35.612325	32.85719	-130.03
35.612539	32.857185	-132.28
35.612752	32.857181	-134.74
35.612966	32.857176	-136.97
35.613179	32.857172	-139.1
35.613393	32.857167	-141.12
35.613606	32.857163	-143.0
35.61382	32.857158	-144.66
35.614033	32.857154	-146.06
35.614247	32.857149	-147.16
35.61446	32.857145	-147.94
35.614674	32.857141	-148.4
35.614887	32.857136	-148.57
35.615101	32.857132	-148.53
35.615314	32.857127	-148.34
35.615528	32.857123	-148.1
35.615741	32.857118	-147.89
35.615955	32.857114	-147.78
35.616169	32.857109	-147.83
35.616382	32.857105	-148.07
35.616596	32.8571	-148.47
35.616809	32.857096	-148.93
35.617023	32.857091	-149.15
35.617236	32.857087	-149.37
35.61745	32.857082	-149.68
35.617663	32.857078	-150.01
35.617877	32.857074	-150.29
35.61809	32.857069	-150.44
35.618304	32.857065	-150.47
35.618517	32.85706	-150.37
35.618731	32.857056	-150.17
35.618944	32.857051	-149.91
35.619158	32.857047	-149.61
35.619371	32.857042	-149.3
35.619585	32.857038	-149.0
35.619798	32.857033	-148.69
35.620012	32.857029	-148.34
35.620226	32.857024	-147.83
35.620439	32.85702	-147.0
35.620653	32.857015	-145.75
35.620866	32.857011	-144.29
35.62108	32.857006	-142.15
35.621293	32.857002	-139.33
35.621507	32.856997	-136.05
35.62172	32.856993	-132.59
35.621934	32.856989	-129.17
35.622147	32.856984	-125.92
35.622361	32.85698	-122.88
35.622574	32.856975	-120.03
35.622788	32.856971	-117.31
35.623001	32.856966	-114.68
35.623215	32.856962	-112.16
35.623428	32.856957	-109.8
35.623642	32.856953	-107.65
35.623856	32.856948	-105.67
35.624069	32.856944	-103.58
35.624283	32.856939	-101.68
35.624496	32.856935	-100.04
35.62471	32.85693	-98.59
35.624923	32.856926	-97.23
35.625137	32.856921	-95.87
35.62535	32.856917	-94.43
35.625564	32.856912	-92.83
35.625777	32.856908	-91.0
35.625991	32.856903	-88.87
35.626204	32.856899	-86.36
35.626418	32.856894	-83.41
35.626631	32.85689	-80.02
35.626845	32.856885	-76.2
35.627058	32.856881	-72.04
35.627272	32.856876	-67.63
35.627485	32.856872	-63.1
35.627699	32.856867	-58.54
35.627913	32.856863	-54.05
35.628126	32.856859	-49.7
35.62834	32.856854	-45.51
35.628553	32.85685	-41.49
35.628767	32.856845	-37.57
35.62898	32.856841	-33.68
35.629194	32.856836	-29.71
35.629407	32.856832	-25.54
35.629621	32.856827	-21.06
35.629834	32.856823	-16.19
35.630048	32.856818	-10.88
35.630261	32.856814	-5.12
35.630475	32.856809	1.04
35.630688	32.856805	7.44
35.630902	32.8568	13.85
35.631115	32.856796	19.95
35.631329	32.856791	25.32
35.631542	32.856787	29.58
35.631756	32.856782	32.72
35.63197	32.856778	34.89
35.632183	32.856773	36.36
35.632397	32.856769	37.4
35.63261	32.856764	38.25
35.632824	32.85676	39.1
35.633037	32.856755	40.04
35.633251	32.856751	41.15
35.633464	32.856746	42.45
35.633678	32.856742	43.94
35.633891	32.856737	45.62
35.634105	32.856733	47.5
35.634318	32.856728	49.59
35.634532	32.856724	51.89
35.634745	32.856719	54.43
35.634959	32.856715	57.17
35.635172	32.85671	60.06
35.635386	32.856706	62.97
35.635599	32.856701	65.69
35.635813	32.856697	68.15
35.636027	32.856692	70.87
35.63624	32.856688	73.19
35.636454	32.856683	75.09
35.636667	32.856679	76.68
35.636881	32.856674	78.04
35.637094	32.85667	79.21
35.637308	32.856665	80.22
35.637521	32.856661	81.07
35.637735	32.856656	81.82
35.637948	32.856652	82.53
35.638162	32.856647	83.28
35.638375	32.856643	84.17
35.638589	32.856638	85.25
35.638802	32.856634	86.6
35.639016	32.856629	88.26
35.639229	32.856625	90.24
35.639443	32.85662	92.53
35.639656	32.856616	94.74
35.63987	32.856611	97.42
35.640083	32.856607	100.57
35.640297	32.856602	104.01
35.640511	32.856598	107.56
35.640724	32.856593	111.14
35.640938	32.856589	114.75
35.641151	32.856584	118.45
35.641365	32.85658	122.28
35.641578	32.856575	126.24
35.641792	32.856571	130.29
35.642005	32.856566	134.36
35.642219	32.856562	138.34
35.642432	32.856557	142.12
35.642646	32.856552	145.61
35.642859	32.856548	148.71
35.643073	32.856543	151.34
35.643286	32.856539	153.46
35.6435	32.856534	155.0
35.643713	32.85653	155.93
35.643927	32.856525	156.21
35.64414	32.856521	155.85
35.60443	32.857535	-84.57
35.604643	32.85753	-86.13
35.604857	32.857526	-87.75
35.60507	32.857521	-89.42
35.605284	32.857517	-91.17
35.605497	32.857512	-92.98
35.605711	32.857508	-94.86
35.605924	32.857504	-96.82
35.606138	32.857499	-98.83
35.606351	32.857495	-100.9
35.606565	32.85749	-103.01
35.606778	32.857486	-105.13
35.606992	32.857481	-107.22
35.607206	32.857477	-109.23
35.607419	32.857472	-111.11
35.607633	32.857468	-112.79
35.607846	32.857463	-114.17
35.60806	32.857459	-114.64
35.608273	32.857455	-113.61
35.608487	32.85745	-111.59
35.6087	32.857446	-109.42
35.608914	32.857441	-107.7
35.609127	32.857437	-106.84
35.609341	32.857432	-106.95
35.609554	32.857428	-107.96
35.609768	32.857423	-109.69
35.609981	32.857419	-111.88
35.610195	32.857414	-114.28
35.610408	32.85741	-116.68
35.610622	32.857406	-118.9
35.610836	32.857401	-120.83
35.611049	32.857397	-122.4
35.611263	32.857392	-123.61
35.611476	32.857388	-124.48
35.61169	32.857383	-125.13
35.611903	32.857379	-125.7
35.612117	32.857374	-126.39
35.61233	32.85737	-127.45
35.612544	32.857365	-129.21
35.612757	32.857361	-132.04
35.612971	32.857356	-135.12
35.613184	32.857352	-138.18
35.613398	32.857348	-141.04
35.613611	32.857343	-143.62
35.613825	32.857339	-145.85
35.614039	32.857334	-147.67
35.614252	32.85733	-149.06
35.614466	32.857325	-150.0
35.614679	32.857321	-150.53
35.614893	32.857316	-150.69
35.615106	32.857312	-150.56
35.61532	32.857307	-150.25
35.615533	32.857303	-149.86
35.615747	32.857298	-149.52
35.61596	32.857294	-149.31
35.616174	32.85729	-149.33
35.616387	32.857285	-149.61
35.616601	32.857281	-150.13
35.616814	32.857276	-150.73
35.617028	32.857272	-151.04
35.617241	32.857267	-151.3
35.617455	32.857263	-151.61
35.617669	32.857258	-151.91
35.617882	32.857254	-152.16
35.618096	32.857249	-152.3
35.618309	32.857245	-152.3
35.618523	32.85724	-152.18
35.618736	32.857236	-151.94
35.61895	32.857231	-151.62
35.619163	32.857227	-151.25
35.619377	32.857222	-150.87
35.61959	32.857218	-150.49
35.619804	32.857214	-150.1
35.620017	32.857209	-149.63
35.620231	32.857205	-148.99
35.620444	32.8572	-148.05
35.620658	32.857196	-146.73
35.620871	32.857191	-145.14
35.621085	32.857187	-142.99
35.621298	32.857182	-140.26
35.621512	32.857178	-137.1
35.621726	32.857173	-133.71
35.621939	32.857169	-130.29
35.622153	32.857164	-126.98
35.622366	32.85716	-123.86
35.62258	32.857155	-120.95
35.622793	32.857151	-118.23
35.623007	32.857146	-115.69
35.62322	32.857142	-113.33
35.623434	32.857137	-111.16
35.623647	32.857133	-109.2
35.623861	32.857128	-107.36
35.624074	32.857124	-105.29
35.624288	32.857119	-103.33
35.624501	32.857115	-101.57
35.624715	32.857111	-99.96
35.624928	32.857106	-98.43
35.625142	32.857102	-96.89
35.625356	32.857097	-95.28
35.625569	32.857093	-93.53
35.625783	32.857088	-91.56
35.625996	32.857084	-89.34
35.62621	32.857079	-86.79
35.626423	32.857075	-83.88
35.626637	32.85707	-80.59
35.62685	32.857066	-76.93
35.627064	32.857061	-72.95
35.627277	32.857057	-68.7
35.627491	32.857052	-64.27
35.627704	32.857048	-59.73
35.627918	32.857043	-55.16
35.628131	32.857039	-50.63
35.628345	32.857034	-46.16
35.628558	32.85703	-41.78
35.628772	32.857025	-37.45
35.628985	32.857021	-33.12
35.629199	32.857016	-28.73
35.629413	32.857012	-24.19
35.629626	32.857007	-19.42
35.62984	32.857003	-14.37
35.630053	32.856998	-9.01
35.630267	32.856994	-3.36
35.63048	32.856989	2.53
35.630694	32.856985	8.52
35.630907	32.85698	14.42
35.631121	32.856976	19.97
35.631334	32.856971	24.89
35.631548	32.856967	29.01
35.631761	32.856962	32.22
35.631975	32.856958	34.64
35.632188	32.856953	36.43
35.632402	32.856949	37.79
35.632615	32.856944	38.91
35.632829	32.85694	39.95
35.633042	32.856935	41.0
35.633256	32.856931	42.15
35.63347	32.856926	43.44
35.633683	32.856922	44.87
35.633897	32.856917	46.46
35.63411	32.856913	48.21
35.634324	32.856908	50.12
35.634537	32.856904	52.2
35.634751	32.856899	54.45
35.634964	32.856895	56.86
35.635178	32.85689	59.38
35.635391	32.856886	61.94
35.635605	32.856881	64.41
35.635818	32.856877	66.69
35.636032	32.856872	68.97
35.636245	32.856868	70.95
35.636459	32.856863	72.65
35.636672	32.856859	74.11
35.636886	32.856854	75.37
35.637099	32.85685	76.44
35.637313	32.856845	77.35
35.637527	32.856841	78.12
35.63774	32.856836	78.78
35.637954	32.856832	79.4
35.638167	32.856827	80.05
35.638381	32.856823	80.8
35.638594	32.856818	81.72
35.638808	32.856814	82.87
35.639021	32.856809	84.31
35.639235	32.856805	86.12
35.639448	32.8568	88.3
35.639662	32.856796	90.7
35.639875	32.856791	93.55
35.640089	32.856787	96.83
35.640302	32.856782	100.42
35.640516	32.856778	104.2
35.640729	32.856773	108.07
35.640943	32.856769	112.02
35.641156	32.856764	116.05
35.64137	32.85676	120.17
35.641583	32.856755	124.36
35.641797	32.856751	128.58
35.642011	32.856746	132.76
35.642224	32.856742	136.79
35.642438	32.856737	140.58
35.642651	32.856733	144.05
35.642865	32.856728	147.09
35.643078	32.856724	149.64
35.643292	32.856719	151.65
35.643505	32.856715	153.05
35.643719	32.85671	153.83
35.643932	32.856706	153.96
35.644146	32.856701	153.43
35.644359	32.856697	152.23
35.604435	32.857715	-82.85
35.604648	32.85771	-84.33
35.604862	32.857706	-85.86
35.605075	32.857702	-87.46
35.605289	32.857697	-89.12
35.605503	32.857693	-90.86
35.605716	32.857688	-92.67
35.60593	32.857684	-94.55
35.606143	32.857679	-96.51
35.606357	32.857675	-98.52
35.60657	32.85767	-100.59
35.606784	32.857666	-102.68
35.606997	32.857662	-104.74
35.607211	32.857657	-106.74
35.607424	32.857653	-108.6
35.607638	32.857648	-110.21
35.607851	32.857644	-111.37
35.608065	32.857639	-111.66
35.608278	32.857635	-110.75
35.608492	32.85763	-108.68
35.608706	32.857626	-106.42
35.608919	32.857621	-104.68
35.609133	32.857617	-104.01
35.609346	32.857613	-104.51
35.60956	32.857608	-106.05
35.609773	32.857604	-108.37
35.609987	32.857599	-111.12
35.6102	32.857595	-114.03
35.610414	32.85759	-116.82
35.610627	32.857586	-119.32
35.610841	32.857581	-121.39
35.611054	32.857577	-122.96
35.611268	32.857572	-124.03
35.611481	32.857568	-124.63
35.611695	32.857563	-124.86
35.611908	32.857559	-124.91
35.612122	32.857555	-124.98
35.612336	32.85755	-125.41
35.612549	32.857546	-126.73
35.612763	32.857541	-129.94
35.612976	32.857537	-133.79
35.61319	32.857532	-137.68
35.613403	32.857528	-141.33
35.613617	32.857523	-144.58
35.61383	32.857519	-147.35
35.614044	32.857514	-149.56
35.614257	32.85751	-151.21
35.614471	32.857505	-152.3
35.614684	32.857501	-152.86
35.614898	32.857497	-152.95
35.615111	32.857492	-152.69
35.615325	32.857488	-152.19
35.615539	32.857483	-151.59
35.615752	32.857479	-151.04
35.615966	32.857474	-150.66
35.616179	32.85747	-150.55
35.616393	32.857465	-150.78
35.616606	32.857461	-151.32
35.61682	32.857456	-152.03
35.617033	32.857452	-152.52
35.617247	32.857447	-152.97
35.61746	32.857443	-153.4
35.617674	32.857438	-153.79
35.617887	32.857434	-154.08
35.618101	32.85743	-154.24
35.618314	32.857425	-154.24
35.618528	32.857421	-154.08
35.618741	32.857416	-153.78
35.618955	32.857412	-153.38
35.619169	32.857407	-152.92
35.619382	32.857403	-152.45
35.619596	32.857398	-151.99
35.619809	32.857394	-151.53
35.620023	32.857389	-151.04
35.620236	32.857385	-150.4
35.62045	32.85738	-149.52
35.620663	32.857376	-148.25
35.620877	32.857371	-146.52
35.62109	32.857367	-144.25
35.621304	32.857362	-141.47
35.621517	32.857358	-138.28
35.621731	32.857353	-134.85
35.621944	32.857349	-131.36
35.622158	32.857344	-127.97
35.622371	32.85734	-124.78
35.622585	32.857336	-121.82
35.622799	32.857331	-119.11
35.623012	32.857327	-116.63
35.623226	32.857322	-114.35
35.623439	32.857318	-112.25
35.623653	32.857313	-110.34
35.623866	32.857309	-108.51
35.62408	32.857304	-106.55
35.624293	32.8573	-104.66
35.624507	32.857295	-102.9
35.62472	32.857291	-101.22
35.624934	32.857286	-99.58
35.625147	32.857282	-97.9
35.625361	32.857277	-96.14
35.625574	32.857273	-94.24
35.625788	32.857268	-92.16
35.626001	32.857264	-89.85
35.626215	32.857259	-87.27
35.626428	32.857255	-84.4
35.626642	32.85725	-81.21
35.626856	32.857246	-77.69
35.627069	32.857241	-73.85
35.627283	32.857237	-69.73
35.627496	32.857232	-65.36
35.62771	32.857228	-60.82
35.627923	32.857223	-56.15
35.628137	32.857219	-51.42
35.62835	32.857214	-46.69
35.628564	32.85721	-41.97
35.628777	32.857205	-37.28
35.628991	32.857201	-32.58
35.629204	32.857197	-27.85
35.629418	32.857192	-23.01
35.629631	32.857188	-18.04
35.629845	32.857183	-12.88
35.630058	32.857179	-7.53
35.630272	32.857174	-2.01
35.630485	32.85717	3.6
35.630699	32.857165	9.21
35.630913	32.857161	14.66
35.631126	32.857156	19.8
35.63134	32.857152	24.46
35.631553	32.857147	28.35
35.631767	32.857143	31.58
35.63198	32.857138	34.16
35.632194	32.857134	36.2
35.632407	32.857129	37.82
35.632621	32.857125	39.17
35.632834	32.85712	40.39
35.633048	32.857116	41.56
35.633261	32.857111	42.78
35.633475	32.857107	44.07
35.633688	32.857102	45.47
35.633902	32.857098	46.98
35.634115	32.857093	48.61
35.634329	32.857089	50.35
35.634542	32.857084	52.2
35.634756	32.85708	54.15
35.63497	32.857075	56.22
35.635183	32.857071	58.41
35.635397	32.857066	60.72
35.63561	32.857062	63.11
35.635824	32.857057	65.44
35.636037	32.857053	67.12
35.636251	32.857048	68.65
35.636464	32.857044	70.09
35.636678	32.857039	71.43
35.636891	32.857035	72.61
35.637105	32.85703	73.63
35.637318	32.857026	74.48
35.637532	32.857021	75.19
35.637745	32.857017	75.8
35.637959	32.857012	76.36
35.638172	32.857008	76.92
35.638386	32.857003	77.56
35.638599	32.856999	78.32
35.638813	32.856994	79.27
35.639027	32.85699	80.48
35.63924	32.856985	82.02
35.639454	32.856981	84.02
35.639667	32.856976	86.67
35.639881	32.856972	89.81
35.640094	32.856967	93.35
35.640308	32.856963	97.17
35.640521	32.856958	101.18
35.640735	32.856954	105.32
35.640948	32.856949	109.55
35.641162	32.856945	113.86
35.641375	32.85694	118.23
35.641589	32.856935	122.64
35.641802	32.856931	127.03
35.642016	32.856926	131.32
35.642229	32.856922	135.43
35.642443	32.856917	139.26
35.642656	32.856913	142.71
35.64287	32.856908	145.71
35.643083	32.856904	148.17
35.643297	32.856899	150.06
35.643511	32.856895	151.32
35.643724	32.85689	151.93
35.643938	32.856886	151.89
35.644151	32.856881	151.18
35.644365	32.856877	149.81
35.644578	32.856872	147.77
35.60444	32.857895	-81.02
35.604654	32.857891	-82.41
35.604867	32.857886	-83.84
35.605081	32.857882	-85.34
35.605294	32.857877	-86.9
35.605508	32.857873	-88.53
35.605721	32.857868	-90.25
35.605935	32.857864	-92.04
35.606148	32.85786	-93.9
35.606362	32.857855	-95.84
35.606575	32.857851	-97.83
35.606789	32.857846	-99.84
35.607003	32.857842	-101.84
35.607216	32.857837	-103.76
35.60743	32.857833	-105.52
35.607643	32.857828	-106.96
35.607857	32.857824	-107.89
35.60807	32.857819	-108.02
35.608284	32.857815	-107.13
35.608497	32.857811	-105.31
35.608711	32.857806	-103.23
35.608924	32.857802	-101.61
35.609138	32.857797	-101.25
35.609351	32.857793	-102.23
35.609565	32.857788	-104.4
35.609778	32.857784	-107.36
35.609992	32.857779	-110.73
35.610206	32.857775	-114.16
35.610419	32.85777	-117.38
35.610633	32.857766	-120.17
35.610846	32.857762	-122.41
35.61106	32.857757	-124.02
35.611273	32.857753	-124.99
35.611487	32.857748	-125.38
35.6117	32.857744	-125.31
35.611914	32.857739	-124.96
35.612127	32.857735	-124.6
35.612341	32.85773	-124.63
35.612554	32.857726	-125.7
35.612768	32.857721	-129.2
35.612981	32.857717	-133.57
35.613195	32.857712	-138.07
35.613408	32.857708	-142.32
35.613622	32.857704	-146.1
35.613836	32.857699	-149.3
35.614049	32.857695	-151.84
35.614263	32.85769	-153.7
35.614476	32.857686	-154.87
35.61469	32.857681	-155.41
35.614903	32.857677	-155.39
35.615117	32.857672	-154.93
35.61533	32.857668	-154.17
35.615544	32.857663	-153.29
35.615757	32.857659	-152.46
35.615971	32.857654	-151.82
35.616184	32.85765	-151.5
35.616398	32.857645	-151.6
35.616611	32.857641	-152.11
35.616825	32.857637	-152.92
35.617039	32.857632	-153.69
35.617252	32.857628	-154.43
35.617466	32.857623	-155.1
35.617679	32.857619	-155.65
35.617893	32.857614	-156.04
35.618106	32.85761	-156.26
35.61832	32.857605	-156.27
35.618533	32.857601	-156.07
35.618747	32.857596	-155.69
35.61896	32.857592	-155.17
35.619174	32.857587	-154.59
35.619387	32.857583	-154.0
35.619601	32.857578	-153.46
35.619814	32.857574	-152.97
35.620028	32.857569	-152.49
35.620241	32.857565	-151.94
35.620455	32.857561	-151.2
35.620669	32.857556	-150.06
35.620882	32.857552	-148.22
35.621096	32.857547	-145.82
35.621309	32.857543	-142.91
35.621523	32.857538	-139.59
35.621736	32.857534	-136.04
35.62195	32.857529	-132.42
35.622163	32.857525	-128.91
35.622377	32.85752	-125.63
35.62259	32.857516	-122.66
35.622804	32.857511	-119.97
35.623017	32.857507	-117.53
35.623231	32.857502	-115.27
35.623444	32.857498	-113.17
35.623658	32.857493	-111.2
35.623871	32.857489	-109.35
35.624085	32.857484	-107.52
35.624299	32.85748	-105.78
35.624512	32.857475	-104.1
35.624726	32.857471	-102.43
35.624939	32.857466	-100.72
35.625153	32.857462	-98.92
35.625366	32.857458	-97.02
35.62558	32.857453	-94.98
35.625793	32.857449	-92.77
35.626007	32.857444	-90.39
35.62622	32.85744	-87.79
35.626434	32.857435	-84.96
35.626647	32.857431	-81.86
35.626861	32.857426	-78.47
35.627074	32.857422	-74.76
35.627288	32.857417	-70.74
35.627501	32.857413	-66.42
35.627715	32.857408	-61.83
35.627928	32.857404	-57.04
35.628142	32.857399	-52.11
35.628356	32.857395	-47.11
35.628569	32.85739	-42.09
35.628783	32.857386	-37.07
35.628996	32.857381	-32.06
35.62921	32.857377	-27.04
35.629423	32.857372	-21.98
35.629637	32.857368	-16.86
35.62985	32.857363	-11.64
35.630064	32.857359	-6.34
35.630277	32.857354	-0.99
35.630491	32.85735	4.37
35.630704	32.857345	9.62
35.630918	32.857341	14.66
35.631131	32.857336	19.35
35.631345	32.857332	23.59
35.631558	32.857327	27.48
35.631772	32.857323	30.8
35.631986	32.857318	33.53
35.632199	32.857314	35.75
35.632413	32.857309	37.57
35.632626	32.857305	39.1
35.63284	32.8573	40.46
35.633053	32.857296	41.75
35.633267	32.857291	43.03
35.63348	32.857287	44.36
35.633694	32.857282	45.75
35.633907	32.857278	47.21
35.634121	32.857273	48.73
35.634334	32.857269	50.3
35.634548	32.857264	51.91
35.634761	32.85726	53.57
35.634975	32.857255	55.27
35.635188	32.857251	57.05
35.635402	32.857246	58.99
35.635615	32.857242	61.12
35.635829	32.857237	63.32
35.636043	32.857233	64.64
35.636256	32.857228	65.95
35.63647	32.857224	67.31
35.636683	32.857219	68.63
35.636897	32.857215	69.82
35.63711	32.85721	70.83
35.637324	32.857206	71.66
35.637537	32.857201	72.35
35.637751	32.857197	72.93
35.637964	32.857192	73.45
35.638178	32.857188	73.98
35.638391	32.857183	74.54
35.638605	32.857179	75.2
35.638818	32.857174	76.0
35.639032	32.85717	77.01
35.639245	32.857165	78.34
35.639459	32.857161	80.22
35.639672	32.857156	83.05
35.639886	32.857152	86.46
35.640099	32.857147	90.23
35.640313	32.857143	94.27
35.640527	32.857138	98.49
35.64074	32.857134	102.84
35.640954	32.857129	107.29
35.641167	32.857125	111.83
35.641381	32.85712	116.42
35.641594	32.857116	121.02
35.641808	32.857111	125.58
35.642021	32.857107	130.01
35.642235	32.857102	134.21
35.642448	32.857098	138.09
35.642662	32.857093	141.55
35.642875	32.857089	144.5
35.643089	32.857084	146.89
35.643302	32.85708	148.65
35.643516	32.857075	149.75
35.643729	32.857071	150.19
35.643943	32.857066	149.96
35.644156	32.857062	149.05
35.64437	32.857057	147.49
35.644584	32.857053	145.28
35.644797	32.857048	142.45
35.604659	32.858071	-80.38
35.604872	32.858066	-81.71
35.605086	32.858062	-83.09
35.6053	32.858058	-84.53
35.605513	32.858053	-86.04
35.605727	32.858049	-87.63
35.60594	32.858044	-89.31
35.606154	32.85804	-91.06
35.606367	32.858035	-92.89
35.606581	32.858031	-94.78
35.606794	32.858026	-96.7
35.607008	32.858022	-98.61
35.607221	32.858018	-100.43
35.607435	32.858013	-102.08
35.607648	32.858009	-103.41
35.607862	32.858004	-104.23
35.608075	32.858	-104.36
35.608289	32.857995	-103.67
35.608503	32.857991	-102.29
35.608716	32.857986	-100.66
35.60893	32.857982	-99.37
35.609143	32.857977	-99.21
35.609357	32.857973	-100.59
35.60957	32.857969	-103.33
35.609784	32.857964	-106.89
35.609997	32.85796	-110.83
35.610211	32.857955	-114.76
35.610424	32.857951	-118.37
35.610638	32.857946	-121.45
35.610851	32.857942	-123.87
35.611065	32.857937	-125.57
35.611278	32.857933	-126.52
35.611492	32.857928	-126.79
35.611706	32.857924	-126.54
35.611919	32.857919	-126.01
35.612133	32.857915	-125.51
35.612346	32.857911	-125.51
35.61256	32.857906	-126.67
35.612773	32.857902	-130.2
35.612987	32.857897	-134.75
35.6132	32.857893	-139.55
35.613414	32.857888	-144.15
35.613627	32.857884	-148.29
35.613841	32.857879	-151.79
35.614054	32.857875	-154.55
35.614268	32.85787	-156.54
35.614481	32.857866	-157.75
35.614695	32.857861	-158.21
35.614908	32.857857	-158.02
35.615122	32.857853	-157.29
35.615336	32.857848	-156.22
35.615549	32.857844	-154.99
35.615763	32.857839	-153.82
35.615976	32.857835	-152.86
35.61619	32.85783	-152.28
35.616403	32.857826	-152.17
35.616617	32.857821	-152.63
35.61683	32.857817	-153.58
35.617044	32.857812	-154.73
35.617257	32.857808	-155.84
35.617471	32.857803	-156.79
35.617684	32.857799	-157.54
35.617898	32.857794	-158.06
35.618111	32.85779	-158.35
35.618325	32.857785	-158.37
35.618539	32.857781	-158.13
35.618752	32.857777	-157.65
35.618966	32.857772	-156.99
35.619179	32.857768	-156.25
35.619393	32.857763	-155.53
35.619606	32.857759	-154.88
35.61982	32.857754	-154.35
35.620033	32.85775	-153.91
35.620247	32.857745	-153.47
35.62046	32.857741	-152.88
35.620674	32.857736	-151.87
35.620887	32.857732	-150.04
35.621101	32.857727	-147.56
35.621314	32.857723	-144.53
35.621528	32.857718	-141.05
35.621741	32.857714	-137.3
35.621955	32.857709	-133.48
35.622169	32.857705	-129.82
35.622382	32.8577	-126.46
35.622596	32.857696	-123.48
35.622809	32.857692	-120.85
35.623023	32.857687	-118.48
35.623236	32.857683	-116.26
35.62345	32.857678	-114.11
35.623663	32.857674	-112.02
35.623877	32.857669	-110.09
35.62409	32.857665	-108.43
35.624304	32.85766	-106.89
35.624517	32.857656	-105.34
35.624731	32.857651	-103.7
35.624944	32.857647	-101.92
35.625158	32.857642	-100.0
35.625371	32.857638	-97.94
35.625585	32.857633	-95.74
35.625799	32.857629	-93.41
35.626012	32.857624	-90.93
35.626226	32.85762	-88.31
35.626439	32.857615	-85.52
35.626653	32.857611	-82.52
35.626866	32.857606	-79.25
35.62708	32.857602	-75.68
35.627293	32.857597	-71.75
35.627507	32.857593	-67.45
35.62772	32.857588	-62.8
35.627934	32.857584	-57.87
35.628147	32.857579	-52.72
35.628361	32.857575	-47.44
35.628574	32.85757	-42.12
35.628788	32.857566	-36.8
35.629001	32.857561	-31.52
35.629215	32.857557	-26.28
35.629429	32.857552	-21.05
35.629642	32.857548	-15.83
35.629856	32.857543	-10.61
35.630069	32.857539	-5.38
35.630283	32.857535	-0.18
35.630496	32.85753	4.94
35.63071	32.857526	9.89
35.630923	32.857521	14.6
35.631137	32.857517	18.97
35.63135	32.857512	22.99
35.631564	32.857508	26.74
35.631777	32.857503	30.04
35.631991	32.857499	32.83
35.632204	32.857494	35.15
35.632418	32.85749	37.09
35.632631	32.857485	38.75
